5.625179290771484375e+00,5.639836788177490234e+00,5.659750938415527344e+00,5.680253028869628906e+00,5.710320472717285156e+00,5.738262176513671875e+00,5.771687507629394531e+00,5.799355030059814453e+00,5.822618484497070312e+00,5.848921298980712891e+00,5.873099803924560547e+00,5.890143871307373047e+00,5.912516117095947266e+00,5.933814525604248047e+00,5.958334922790527344e+00,5.973762035369873047e+00,5.990129470825195312e+00,6.011236190795898438e+00,6.031021595001220703e+00,6.047127723693847656e+00,6.064887523651123047e+00,6.087146759033203125e+00,6.113534927368164062e+00,6.134275436401367188e+00,6.155639648437500000e+00,6.174007892608642578e+00,6.193894386291503906e+00,6.208460807800292969e+00,6.227883338928222656e+00,6.247340202331542969e+00,6.274724483489990234e+00,6.300053119659423828e+00,6.334100246429443359e+00,6.366098880767822266e+00,6.404699802398681641e+00,6.442276477813720703e+00,6.472364902496337891e+00,6.507247447967529297e+00,6.534253120422363281e+00,6.557402610778808594e+00,6.590284824371337891e+00,6.617555141448974609e+00,6.651494026184082031e+00,6.684535503387451172e+00,6.721574306488037109e+00,6.769992351531982422e+00,6.819015026092529297e+00,6.871997356414794922e+00,6.924899578094482422e+00,6.999965667724609375e+00,7.067089557647705078e+00,7.124772071838378906e+00,7.191114425659179688e+00,7.249206542968750000e+00,7.314744472503662109e+00,7.395938396453857422e+00,7.486730575561523438e+00,7.561191082000732422e+00,7.621476650238037109e+00,7.689694881439208984e+00,7.746229171752929688e+00,7.749366760253906250e+00,7.612969875335693359e+00,7.372435092926025391e+00,6.994328498840332031e+00,6.732933521270751953e+00,6.637501716613769531e+00,6.651635646820068359e+00,6.566210746765136719e+00,6.566926479339599609e+00,6.604031085968017578e+00,6.561686038970947266e+00,6.516090393066406250e+00,6.527791023254394531e+00,6.562606811523437500e+00,6.568039894104003906e+00,6.480048179626464844e+00,6.385537624359130859e+00,6.375364780426025391e+00,6.313881397247314453e+00,6.130389213562011719e+00,5.863827228546142578e+00,5.599740505218505859e+00,5.374253749847412109e+00,5.219207286834716797e+00,5.199869155883789062e+00,5.211318492889404297e+00,5.257009506225585938e+00,5.274931430816650391e+00,5.299703598022460938e+00,5.323870182037353516e+00,5.276274681091308594e+00,5.236282825469970703e+00,5.166245460510253906e+00,5.101502895355224609e+00,5.113395214080810547e+00,5.149665355682373047e+00,5.130699634552001953e+00,5.320252418518066406e+00,5.768930912017822266e+00,6.553769111633300781e+00,7.235870361328125000e+00,7.521083354949951172e+00,7.487057685852050781e+00,7.499351024627685547e+00,7.430175304412841797e+00,7.409861564636230469e+00,7.444000244140625000e+00,7.373566150665283203e+00,7.294951915740966797e+00,7.290158748626708984e+00,7.412938594818115234e+00,7.568531990051269531e+00,7.596742153167724609e+00,7.671845436096191406e+00,7.504688739776611328e+00,7.152441978454589844e+00,6.682636737823486328e+00,6.212476253509521484e+00
5.488986968994140625e+00,5.504711151123046875e+00,5.522803306579589844e+00,5.549628734588623047e+00,5.585929393768310547e+00,5.618627548217773438e+00,5.654214859008789062e+00,5.684129238128662109e+00,5.716434001922607422e+00,5.748764038085937500e+00,5.777764797210693359e+00,5.800679683685302734e+00,5.825718402862548828e+00,5.845929145812988281e+00,5.871310234069824219e+00,5.889425754547119141e+00,5.911646366119384766e+00,5.933882236480712891e+00,5.957398414611816406e+00,5.978083133697509766e+00,6.003250598907470703e+00,6.028421878814697266e+00,6.056064128875732422e+00,6.081190109252929688e+00,6.103492736816406250e+00,6.120162487030029297e+00,6.139966011047363281e+00,6.158091545104980469e+00,6.178206920623779297e+00,6.199851036071777344e+00,6.228407382965087891e+00,6.256714820861816406e+00,6.293083667755126953e+00,6.325863838195800781e+00,6.365084648132324219e+00,6.402887821197509766e+00,6.435471057891845703e+00,6.469403266906738281e+00,6.502482414245605469e+00,6.532602310180664062e+00,6.572120666503906250e+00,6.605329513549804688e+00,6.637367248535156250e+00,6.671545982360839844e+00,6.711425304412841797e+00,6.753719806671142578e+00,6.804668426513671875e+00,6.855525016784667969e+00,6.902889251708984375e+00,6.969877719879150391e+00,7.036168575286865234e+00,7.094673156738281250e+00,7.160834312438964844e+00,7.221694469451904297e+00,7.290891170501708984e+00,7.384105682373046875e+00,7.460656166076660156e+00,7.515954017639160156e+00,7.549891948699951172e+00,7.599886894226074219e+00,7.632462024688720703e+00,7.609357833862304688e+00,7.441389083862304688e+00,7.208707332611083984e+00,6.870333671569824219e+00,6.691666603088378906e+00,6.639876365661621094e+00,6.650230407714843750e+00,6.553527832031250000e+00,6.595556259155273438e+00,6.677258491516113281e+00,6.638494968414306641e+00,6.590150356292724609e+00,6.594026088714599609e+00,6.607467174530029297e+00,6.636024951934814453e+00,6.579626560211181641e+00,6.472566127777099609e+00,6.408615112304687500e+00,6.345434188842773438e+00,6.164328575134277344e+00,5.863075733184814453e+00,5.589044570922851562e+00,5.366796016693115234e+00,5.229223728179931641e+00,5.215974807739257812e+00,5.210187435150146484e+00,5.251111507415771484e+00,5.278772354125976562e+00,5.290600299835205078e+00,5.309181213378906250e+00,5.263276100158691406e+00,5.224872112274169922e+00,5.169538497924804688e+00,5.118004322052001953e+00,5.098662376403808594e+00,5.121012687683105469e+00,5.110380649566650391e+00,5.276111125946044922e+00,5.737307071685791016e+00,6.678465366363525391e+00,7.520522117614746094e+00,7.759997367858886719e+00,7.732166767120361328e+00,7.762116909027099609e+00,7.709306716918945312e+00,7.747154235839843750e+00,7.828131675720214844e+00,7.779551029205322266e+00,7.686483860015869141e+00,7.611450672149658203e+00,7.646542549133300781e+00,7.713356018066406250e+00,7.660230159759521484e+00,7.659945487976074219e+00,7.476415634155273438e+00,7.140336036682128906e+00,6.605795383453369141e+00,6.097655773162841797e+00
5.336199283599853516e+00,5.354828357696533203e+00,5.373922824859619141e+00,5.405151367187500000e+00,5.440636157989501953e+00,5.476914882659912109e+00,5.514026165008544922e+00,5.544998168945312500e+00,5.574587345123291016e+00,5.608615875244140625e+00,5.640179157257080078e+00,5.667531013488769531e+00,5.690160751342773438e+00,5.713187694549560547e+00,5.744238853454589844e+00,5.766303062438964844e+00,5.787992954254150391e+00,5.813754558563232422e+00,5.838788509368896484e+00,5.860962390899658203e+00,5.890143871307373047e+00,5.916636466979980469e+00,5.942955017089843750e+00,5.971628665924072266e+00,5.994867324829101562e+00,6.013007640838623047e+00,6.034594535827636719e+00,6.054855346679687500e+00,6.075700283050537109e+00,6.101465225219726562e+00,6.133152008056640625e+00,6.166757583618164062e+00,6.200660705566406250e+00,6.236051082611083984e+00,6.274102687835693359e+00,6.313446998596191406e+00,6.353675365447998047e+00,6.388357162475585938e+00,6.421184539794921875e+00,6.453102111816406250e+00,6.492425441741943359e+00,6.531615257263183594e+00,6.562087535858154297e+00,6.595860004425048828e+00,6.640128135681152344e+00,6.685759544372558594e+00,6.733258724212646484e+00,6.777410984039306641e+00,6.815437793731689453e+00,6.874126911163330078e+00,6.938746929168701172e+00,6.994888782501220703e+00,7.054100036621093750e+00,7.108814716339111328e+00,7.177068710327148438e+00,7.270825386047363281e+00,7.346681118011474609e+00,7.401149749755859375e+00,7.422789096832275391e+00,7.457714080810546875e+00,7.482933998107910156e+00,7.451365947723388672e+00,7.314821243286132812e+00,7.158161163330078125e+00,6.847929954528808594e+00,6.735512256622314453e+00,6.692296028137207031e+00,6.634601593017578125e+00,6.580583095550537109e+00,6.613694190979003906e+00,6.683428764343261719e+00,6.662313938140869141e+00,6.615535259246826172e+00,6.642916679382324219e+00,6.738132476806640625e+00,6.824261665344238281e+00,6.752479553222656250e+00,6.632143974304199219e+00,6.573428153991699219e+00,6.419488906860351562e+00,6.219766616821289062e+00,5.855488300323486328e+00,5.508472442626953125e+00,5.294992923736572266e+00,5.161800861358642578e+00,5.159308910369873047e+00,5.157008647918701172e+00,5.184317588806152344e+00,5.199092864990234375e+00,5.216630458831787109e+00,5.257347583770751953e+00,5.231577873229980469e+00,5.204004764556884766e+00,5.172353744506835938e+00,5.129357814788818359e+00,5.098809719085693359e+00,5.113918781280517578e+00,5.091942310333251953e+00,5.205582141876220703e+00,5.633347988128662109e+00,6.622553348541259766e+00,7.548730850219726562e+00,7.853901386260986328e+00,7.816958427429199219e+00,7.868370532989501953e+00,7.843612194061279297e+00,7.872307777404785156e+00,7.933988571166992188e+00,7.948801517486572266e+00,7.879856109619140625e+00,7.797785758972167969e+00,7.819530963897705078e+00,7.825402736663818359e+00,7.725071907043457031e+00,7.614363193511962891e+00,7.406070709228515625e+00,7.096850395202636719e+00,6.613873004913330078e+00,6.149046421051025391e+00
5.201419353485107422e+00,5.220474243164062500e+00,5.239736557006835938e+00,5.270114898681640625e+00,5.307094573974609375e+00,5.343005180358886719e+00,5.376911640167236328e+00,5.405611991882324219e+00,5.434391975402832031e+00,5.466652393341064453e+00,5.496087074279785156e+00,5.523343086242675781e+00,5.549335956573486328e+00,5.577358722686767578e+00,5.613578319549560547e+00,5.637217998504638672e+00,5.658403873443603516e+00,5.685796260833740234e+00,5.712908267974853516e+00,5.737715244293212891e+00,5.766346454620361328e+00,5.792951583862304688e+00,5.816576480865478516e+00,5.845624446868896484e+00,5.874240398406982422e+00,5.896341323852539062e+00,5.918290615081787109e+00,5.939199924468994141e+00,5.961757183074951172e+00,5.986677646636962891e+00,6.022463321685791016e+00,6.058565616607666016e+00,6.095029354095458984e+00,6.131277561187744141e+00,6.168614387512207031e+00,6.213031291961669922e+00,6.254665851593017578e+00,6.289589405059814453e+00,6.322273731231689453e+00,6.357429504394531250e+00,6.394851684570312500e+00,6.436436653137207031e+00,6.469349861145019531e+00,6.502326965332031250e+00,6.548655033111572266e+00,6.591056823730468750e+00,6.636365413665771484e+00,6.672909736633300781e+00,6.709711074829101562e+00,6.763534545898437500e+00,6.822804927825927734e+00,6.879801750183105469e+00,6.931940078735351562e+00,6.982702255249023438e+00,7.041568279266357422e+00,7.139227867126464844e+00,7.208157539367675781e+00,7.270394802093505859e+00,7.288750648498535156e+00,7.327639579772949219e+00,7.356443405151367188e+00,7.312912464141845703e+00,7.198514461517333984e+00,7.066490173339843750e+00,6.833525180816650391e+00,6.727729797363281250e+00,6.694114685058593750e+00,6.681871414184570312e+00,6.638480186462402344e+00,6.637782573699951172e+00,6.690310955047607422e+00,6.680491924285888672e+00,6.618860721588134766e+00,6.642020225524902344e+00,6.811647415161132812e+00,6.948698997497558594e+00,6.889409542083740234e+00,6.800527095794677734e+00,6.761800289154052734e+00,6.614428520202636719e+00,6.306072235107421875e+00,5.779379844665527344e+00,5.397529602050781250e+00,5.214969158172607422e+00,5.093824386596679688e+00,5.085193634033203125e+00,5.092545986175537109e+00,5.121487617492675781e+00,5.131536483764648438e+00,5.163379192352294922e+00,5.228341102600097656e+00,5.224341392517089844e+00,5.203088283538818359e+00,5.163382053375244141e+00,5.127743244171142578e+00,5.085959911346435547e+00,5.103003501892089844e+00,5.069617748260498047e+00,5.125516414642333984e+00,5.502987384796142578e+00,6.468417644500732422e+00,7.500273227691650391e+00,7.856266498565673828e+00,7.829233646392822266e+00,7.890191555023193359e+00,7.893745899200439453e+00,7.923376083374023438e+00,7.994508266448974609e+00,8.073410034179687500e+00,8.051207542419433594e+00,8.011545181274414062e+00,8.054950714111328125e+00,8.026588439941406250e+00,7.812299251556396484e+00,7.574207305908203125e+00,7.340574741363525391e+00,7.074076652526855469e+00,6.595767498016357422e+00,6.191442966461181641e+00
5.151332378387451172e+00,5.168335914611816406e+00,5.184948921203613281e+00,5.214738845825195312e+00,5.251266956329345703e+00,5.282322883605957031e+00,5.311036586761474609e+00,5.337104797363281250e+00,5.368755817413330078e+00,5.398769378662109375e+00,5.426996707916259766e+00,5.448854923248291016e+00,5.475677490234375000e+00,5.504992961883544922e+00,5.540268421173095703e+00,5.561756610870361328e+00,5.585865020751953125e+00,5.612550258636474609e+00,5.640751838684082031e+00,5.666561603546142578e+00,5.693488121032714844e+00,5.720439434051513672e+00,5.749362945556640625e+00,5.778633594512939453e+00,5.804919242858886719e+00,5.827598094940185547e+00,5.852540493011474609e+00,5.872862339019775391e+00,5.894723892211914062e+00,5.915668487548828125e+00,5.953330516815185547e+00,5.987481117248535156e+00,6.027454376220703125e+00,6.060963630676269531e+00,6.101335048675537109e+00,6.143403053283691406e+00,6.180297851562500000e+00,6.217452526092529297e+00,6.252591609954833984e+00,6.288693428039550781e+00,6.328904151916503906e+00,6.368423938751220703e+00,6.403054237365722656e+00,6.433096408843994141e+00,6.475575923919677734e+00,6.516389369964599609e+00,6.566865444183349609e+00,6.607247352600097656e+00,6.641479015350341797e+00,6.692130565643310547e+00,6.749175071716308594e+00,6.808330535888671875e+00,6.861176013946533203e+00,6.909493446350097656e+00,6.968663215637207031e+00,7.055081844329833984e+00,7.118041992187500000e+00,7.190932750701904297e+00,7.209883689880371094e+00,7.248246192932128906e+00,7.269418239593505859e+00,7.226755619049072266e+00,7.141078472137451172e+00,7.034841060638427734e+00,6.832330703735351562e+00,6.752493858337402344e+00,6.716451644897460938e+00,6.658898830413818359e+00,6.635541439056396484e+00,6.640588283538818359e+00,6.665222167968750000e+00,6.682456016540527344e+00,6.662148952484130859e+00,6.700548171997070312e+00,6.866943359375000000e+00,7.006879806518554688e+00,7.010958194732666016e+00,6.949015140533447266e+00,6.994023323059082031e+00,6.885608196258544922e+00,6.387309074401855469e+00,5.694001197814941406e+00,5.298408985137939453e+00,5.168835163116455078e+00,5.052165031433105469e+00,5.037447929382324219e+00,5.069159984588623047e+00,5.103800296783447266e+00,5.127545833587646484e+00,5.193040370941162109e+00,5.257240772247314453e+00,5.256421089172363281e+00,5.220969200134277344e+00,5.183364868164062500e+00,5.133075237274169922e+00,5.087011814117431641e+00,5.109422683715820312e+00,5.069802284240722656e+00,5.098888874053955078e+00,5.415953636169433594e+00,6.366370201110839844e+00,7.478797912597656250e+00,7.944292068481445312e+00,7.944427490234375000e+00,8.011809349060058594e+00,8.030651092529296875e+00,8.042851448059082031e+00,8.129425048828125000e+00,8.218575477600097656e+00,8.237425804138183594e+00,8.241968154907226562e+00,8.316605567932128906e+00,8.273009300231933594e+00,7.972077846527099609e+00,7.611913204193115234e+00,7.372633457183837891e+00,7.158436775207519531e+00,6.773806095123291016e+00,6.414947509765625000e+00
5.103660106658935547e+00,5.122382164001464844e+00,5.140164852142333984e+00,5.170569896697998047e+00,5.202249050140380859e+00,5.231483936309814453e+00,5.260990619659423828e+00,5.288948059082031250e+00,5.317931175231933594e+00,5.348635196685791016e+00,5.378550529479980469e+00,5.400197505950927734e+00,5.425511837005615234e+00,5.456489562988281250e+00,5.488610267639160156e+00,5.512215614318847656e+00,5.536410331726074219e+00,5.563132286071777344e+00,5.592164516448974609e+00,5.617496013641357422e+00,5.642598152160644531e+00,5.669534206390380859e+00,5.703654289245605469e+00,5.730965137481689453e+00,5.754292488098144531e+00,5.776700019836425781e+00,5.799767971038818359e+00,5.822424888610839844e+00,5.844659805297851562e+00,5.868470191955566406e+00,5.904781818389892578e+00,5.938614368438720703e+00,5.973676204681396484e+00,6.007934570312500000e+00,6.045767784118652344e+00,6.084182739257812500e+00,6.118422508239746094e+00,6.157277107238769531e+00,6.190554141998291016e+00,6.228065013885498047e+00,6.267675399780273438e+00,6.308558464050292969e+00,6.341083526611328125e+00,6.370623111724853516e+00,6.412599086761474609e+00,6.461759090423583984e+00,6.515575408935546875e+00,6.551601886749267578e+00,6.585094928741455078e+00,6.633652210235595703e+00,6.686120033264160156e+00,6.741306304931640625e+00,6.792661190032958984e+00,6.844033718109130859e+00,6.902049064636230469e+00,6.984474182128906250e+00,7.044350147247314453e+00,7.127298831939697266e+00,7.147891521453857422e+00,7.188951969146728516e+00,7.203428268432617188e+00,7.169885158538818359e+00,7.072385787963867188e+00,6.951124668121337891e+00,6.820607662200927734e+00,6.801891803741455078e+00,6.753485202789306641e+00,6.689608097076416016e+00,6.647192001342773438e+00,6.652055740356445312e+00,6.638036727905273438e+00,6.630236148834228516e+00,6.709283351898193359e+00,6.804757118225097656e+00,6.963254451751708984e+00,7.126198768615722656e+00,7.141437530517578125e+00,7.150517940521240234e+00,7.250579357147216797e+00,7.144656181335449219e+00,6.551348686218261719e+00,5.641432285308837891e+00,5.229424476623535156e+00,5.128092765808105469e+00,5.030229568481445312e+00,5.026697158813476562e+00,5.101848602294921875e+00,5.153525352478027344e+00,5.161502838134765625e+00,5.222680568695068359e+00,5.282271385192871094e+00,5.273180961608886719e+00,5.234803676605224609e+00,5.184614181518554688e+00,5.122138023376464844e+00,5.094657421112060547e+00,5.135955333709716797e+00,5.099087238311767578e+00,5.131758213043212891e+00,5.432581424713134766e+00,6.362676620483398438e+00,7.529529094696044922e+00,8.048348426818847656e+00,8.061117172241210938e+00,8.123390197753906250e+00,8.158983230590820312e+00,8.198115348815917969e+00,8.310256958007812500e+00,8.405223846435546875e+00,8.429967880249023438e+00,8.464450836181640625e+00,8.558447837829589844e+00,8.565920829772949219e+00,8.256163597106933594e+00,7.867963314056396484e+00,7.643685340881347656e+00,7.456251144409179688e+00,7.111142635345458984e+00,6.788079261779785156e+00
5.067226409912109375e+00,5.087582588195800781e+00,5.108710765838623047e+00,5.137829303741455078e+00,5.166325569152832031e+00,5.193429470062255859e+00,5.222977161407470703e+00,5.251621723175048828e+00,5.277758598327636719e+00,5.307422161102294922e+00,5.336172103881835938e+00,5.358310699462890625e+00,5.383796691894531250e+00,5.414152622222900391e+00,5.444151401519775391e+00,5.470250606536865234e+00,5.493903636932373047e+00,5.518864154815673828e+00,5.547798156738281250e+00,5.572945117950439453e+00,5.598340988159179688e+00,5.623873233795166016e+00,5.654489994049072266e+00,5.681616783142089844e+00,5.707542896270751953e+00,5.732878684997558594e+00,5.755629539489746094e+00,5.779785633087158203e+00,5.805956840515136719e+00,5.831525325775146484e+00,5.863735675811767578e+00,5.896802902221679688e+00,5.927209854125976562e+00,5.963615894317626953e+00,6.001124858856201172e+00,6.037456989288330078e+00,6.072706699371337891e+00,6.110919475555419922e+00,6.145734310150146484e+00,6.182875156402587891e+00,6.222965240478515625e+00,6.264420509338378906e+00,6.297632694244384766e+00,6.329550266265869141e+00,6.375867843627929688e+00,6.423702716827392578e+00,6.468064785003662109e+00,6.502140045166015625e+00,6.541258335113525391e+00,6.592868328094482422e+00,6.637015342712402344e+00,6.693185329437255859e+00,6.746860027313232422e+00,6.802081108093261719e+00,6.852218151092529297e+00,6.929214477539062500e+00,6.992438793182373047e+00,7.079419612884521484e+00,7.134602069854736328e+00,7.188784599304199219e+00,7.214707851409912109e+00,7.187761783599853516e+00,7.082534313201904297e+00,6.945794582366943359e+00,6.815083980560302734e+00,6.772686481475830078e+00,6.748692035675048828e+00,6.727292060852050781e+00,6.663381576538085938e+00,6.662980556488037109e+00,6.657710552215576172e+00,6.668832778930664062e+00,6.761038780212402344e+00,6.883338451385498047e+00,7.059933662414550781e+00,7.221990585327148438e+00,7.272711753845214844e+00,7.300234317779541016e+00,7.432996749877929688e+00,7.364349365234375000e+00,6.665575981140136719e+00,5.592871189117431641e+00,5.176528930664062500e+00,5.111577987670898438e+00,5.030326366424560547e+00,5.039278984069824219e+00,5.120567321777343750e+00,5.183582305908203125e+00,5.192811965942382812e+00,5.233705043792724609e+00,5.283796310424804688e+00,5.283071517944335938e+00,5.241510391235351562e+00,5.184085369110107422e+00,5.111197471618652344e+00,5.095778942108154297e+00,5.162898063659667969e+00,5.144727706909179688e+00,5.176410198211669922e+00,5.485156059265136719e+00,6.437518119812011719e+00,7.575246334075927734e+00,8.095301628112792969e+00,8.115780830383300781e+00,8.186981201171875000e+00,8.248666763305664062e+00,8.318966865539550781e+00,8.462667465209960938e+00,8.554111480712890625e+00,8.605375289916992188e+00,8.634056091308593750e+00,8.728716850280761719e+00,8.757710456848144531e+00,8.512042045593261719e+00,8.268355369567871094e+00,8.254802703857421875e+00,8.195786476135253906e+00,7.923791408538818359e+00,7.600241661071777344e+00
5.097165107727050781e+00,5.118144989013671875e+00,5.139987468719482422e+00,5.169172763824462891e+00,5.200195312500000000e+00,5.225654125213623047e+00,5.249663352966308594e+00,5.271931171417236328e+00,5.297146320343017578e+00,5.322844028472900391e+00,5.349864006042480469e+00,5.368803501129150391e+00,5.393189907073974609e+00,5.421902179718017578e+00,5.453099250793457031e+00,5.477602005004882812e+00,5.504204750061035156e+00,5.528328895568847656e+00,5.553750991821289062e+00,5.579907894134521484e+00,5.606336116790771484e+00,5.629342079162597656e+00,5.655156135559082031e+00,5.677035808563232422e+00,5.706939220428466797e+00,5.735032558441162109e+00,5.758256435394287109e+00,5.784882068634033203e+00,5.810394287109375000e+00,5.832709789276123047e+00,5.862113475799560547e+00,5.891477584838867188e+00,5.922677040100097656e+00,5.958142280578613281e+00,6.000638961791992188e+00,6.033276081085205078e+00,6.067294597625732422e+00,6.105801105499267578e+00,6.140686511993408203e+00,6.174643516540527344e+00,6.217570304870605469e+00,6.257458209991455078e+00,6.289548397064208984e+00,6.323415756225585938e+00,6.369814395904541016e+00,6.415176868438720703e+00,6.455881595611572266e+00,6.495950698852539062e+00,6.541311264038085938e+00,6.587907791137695312e+00,6.632223129272460938e+00,6.684583663940429688e+00,6.741679191589355469e+00,6.794326782226562500e+00,6.841652393341064453e+00,6.905223369598388672e+00,6.963694572448730469e+00,7.056601524353027344e+00,7.123386383056640625e+00,7.192004680633544922e+00,7.237824440002441406e+00,7.227895259857177734e+00,7.150171756744384766e+00,7.034570693969726562e+00,6.913696289062500000e+00,6.825210571289062500e+00,6.765679359436035156e+00,6.739010334014892578e+00,6.667145729064941406e+00,6.669690132141113281e+00,6.700013637542724609e+00,6.739683628082275391e+00,6.819812774658203125e+00,6.964209079742431641e+00,7.141119480133056641e+00,7.292820453643798828e+00,7.322321891784667969e+00,7.341816902160644531e+00,7.507767200469970703e+00,7.468459129333496094e+00,6.789442062377929688e+00,5.615676879882812500e+00,5.151537418365478516e+00,5.054429531097412109e+00,5.009897708892822266e+00,5.061610221862792969e+00,5.143599987030029297e+00,5.208242893218994141e+00,5.221774101257324219e+00,5.262117862701416016e+00,5.318759918212890625e+00,5.314659595489501953e+00,5.269180774688720703e+00,5.210586071014404297e+00,5.116215229034423828e+00,5.102996349334716797e+00,5.176482200622558594e+00,5.167284488677978516e+00,5.213881492614746094e+00,5.559804916381835938e+00,6.618774414062500000e+00,7.756165027618408203e+00,8.195930480957031250e+00,8.190879821777343750e+00,8.273880004882812500e+00,8.346190452575683594e+00,8.447427749633789062e+00,8.592777252197265625e+00,8.687767982482910156e+00,8.738101959228515625e+00,8.794449806213378906e+00,8.872184753417968750e+00,8.936635971069335938e+00,8.807420730590820312e+00,8.719322204589843750e+00,8.948263168334960938e+00,9.165209770202636719e+00,9.225564002990722656e+00,9.163281440734863281e+00
5.080173492431640625e+00,5.102217674255371094e+00,5.124207973480224609e+00,5.152295589447021484e+00,5.187397480010986328e+00,5.217273712158203125e+00,5.241885185241699219e+00,5.261217594146728516e+00,5.286084175109863281e+00,5.313892364501953125e+00,5.338055133819580078e+00,5.362947940826416016e+00,5.390540599822998047e+00,5.420749664306640625e+00,5.452084541320800781e+00,5.476885795593261719e+00,5.502804279327392578e+00,5.526592731475830078e+00,5.556382179260253906e+00,5.586999416351318359e+00,5.609906196594238281e+00,5.632033348083496094e+00,5.659276008605957031e+00,5.682330608367919922e+00,5.712253570556640625e+00,5.741934299468994141e+00,5.768357753753662109e+00,5.797082901000976562e+00,5.819802284240722656e+00,5.843820571899414062e+00,5.876334190368652344e+00,5.908460617065429688e+00,5.942223072052001953e+00,5.977831840515136719e+00,6.014620304107666016e+00,6.049523353576660156e+00,6.087646961212158203e+00,6.127282619476318359e+00,6.158659458160400391e+00,6.185313701629638672e+00,6.226243972778320312e+00,6.265057086944580078e+00,6.293930053710937500e+00,6.327736377716064453e+00,6.370408058166503906e+00,6.421800136566162109e+00,6.470903873443603516e+00,6.511559009552001953e+00,6.552304744720458984e+00,6.589002609252929688e+00,6.634549140930175781e+00,6.686619758605957031e+00,6.744112491607666016e+00,6.804103851318359375e+00,6.850844860076904297e+00,6.912348270416259766e+00,6.959137916564941406e+00,7.061092853546142578e+00,7.136687755584716797e+00,7.204666614532470703e+00,7.259528636932373047e+00,7.238358974456787109e+00,7.227677345275878906e+00,7.161299228668212891e+00,7.054895877838134766e+00,6.908572673797607422e+00,6.763626098632812500e+00,6.670344352722167969e+00,6.628619670867919922e+00,6.674480438232421875e+00,6.694413185119628906e+00,6.793466091156005859e+00,6.940494537353515625e+00,7.108153343200683594e+00,7.291423320770263672e+00,7.377122879028320312e+00,7.431711673736572266e+00,7.444839477539062500e+00,7.557508945465087891e+00,7.602569103240966797e+00,6.999337196350097656e+00,5.731271266937255859e+00,5.149560451507568359e+00,5.032387256622314453e+00,5.020988941192626953e+00,5.101091861724853516e+00,5.188661098480224609e+00,5.233521461486816406e+00,5.264186382293701172e+00,5.320610046386718750e+00,5.380628108978271484e+00,5.356213569641113281e+00,5.293236255645751953e+00,5.232871055603027344e+00,5.128020763397216797e+00,5.111881732940673828e+00,5.176947593688964844e+00,5.180060386657714844e+00,5.256443500518798828e+00,5.671190738677978516e+00,6.858132839202880859e+00,7.929356098175048828e+00,8.268145561218261719e+00,8.250606536865234375e+00,8.352439880371093750e+00,8.450090408325195312e+00,8.573426246643066406e+00,8.730249404907226562e+00,8.802492141723632812e+00,8.863367080688476562e+00,8.924003601074218750e+00,9.027658462524414062e+00,9.183754920959472656e+00,9.195382118225097656e+00,9.282293319702148438e+00,9.592293739318847656e+00,9.867521286010742188e+00,1.013439464569091797e+01,1.037574863433837891e+01
5.004040718078613281e+00,5.027412891387939453e+00,5.049412727355957031e+00,5.074022769927978516e+00,5.104298591613769531e+00,5.137840270996093750e+00,5.171098709106445312e+00,5.194292068481445312e+00,5.221105575561523438e+00,5.248088836669921875e+00,5.273534774780273438e+00,5.301993370056152344e+00,5.334409236907958984e+00,5.365615367889404297e+00,5.396570205688476562e+00,5.419434547424316406e+00,5.447451591491699219e+00,5.474164485931396484e+00,5.505645275115966797e+00,5.535054683685302734e+00,5.558085441589355469e+00,5.581079483032226562e+00,5.611472129821777344e+00,5.636691093444824219e+00,5.668187618255615234e+00,5.698133468627929688e+00,5.725276947021484375e+00,5.752130031585693359e+00,5.776329040527343750e+00,5.805499076843261719e+00,5.843515872955322266e+00,5.882155895233154297e+00,5.919322967529296875e+00,5.954058170318603516e+00,5.988106727600097656e+00,6.026564598083496094e+00,6.068153858184814453e+00,6.109738349914550781e+00,6.140210628509521484e+00,6.168825149536132812e+00,6.208132743835449219e+00,6.248991966247558594e+00,6.278318405151367188e+00,6.318065643310546875e+00,6.360090255737304688e+00,6.415443897247314453e+00,6.469516754150390625e+00,6.514070510864257812e+00,6.550546646118164062e+00,6.595288753509521484e+00,6.641067504882812500e+00,6.700242996215820312e+00,6.758901119232177734e+00,6.826631069183349609e+00,6.870451927185058594e+00,6.935232639312744141e+00,6.987868785858154297e+00,7.092286109924316406e+00,7.171626567840576172e+00,7.246600627899169922e+00,7.289503097534179688e+00,7.301100730895996094e+00,7.309410095214843750e+00,7.262504577636718750e+00,7.159651279449462891e+00,7.028637886047363281e+00,6.830389022827148438e+00,6.672007560729980469e+00,6.664888858795166016e+00,6.712415218353271484e+00,6.701523780822753906e+00,6.811558246612548828e+00,7.056546211242675781e+00,7.257287025451660156e+00,7.392038345336914062e+00,7.475431442260742188e+00,7.562427043914794922e+00,7.574163913726806641e+00,7.630221366882324219e+00,7.652786731719970703e+00,7.127139091491699219e+00,5.787501335144042969e+00,5.129037380218505859e+00,5.019524097442626953e+00,5.034246921539306641e+00,5.129058837890625000e+00,5.216366767883300781e+00,5.262296199798583984e+00,5.302624225616455078e+00,5.363319396972656250e+00,5.424547672271728516e+00,5.387812137603759766e+00,5.315781116485595703e+00,5.273586750030517578e+00,5.160594940185546875e+00,5.152317523956298828e+00,5.205468654632568359e+00,5.187734127044677734e+00,5.292438507080078125e+00,5.815052032470703125e+00,7.143574714660644531e+00,8.157888412475585938e+00,8.381988525390625000e+00,8.367097854614257812e+00,8.489946365356445312e+00,8.593310356140136719e+00,8.727469444274902344e+00,8.875430107116699219e+00,8.963900566101074219e+00,9.037594795227050781e+00,9.117774963378906250e+00,9.230383872985839844e+00,9.471138954162597656e+00,9.630893707275390625e+00,9.854046821594238281e+00,1.023088264465332031e+01,1.047341823577880859e+01,1.082026195526123047e+01,1.109529685974121094e+01
4.995188236236572266e+00,5.022048473358154297e+00,5.042338371276855469e+00,5.067133426666259766e+00,5.094213008880615234e+00,5.126534461975097656e+00,5.158268451690673828e+00,5.183935642242431641e+00,5.211465835571289062e+00,5.235601902008056641e+00,5.264155387878417969e+00,5.289678096771240234e+00,5.314780235290527344e+00,5.341803550720214844e+00,5.372108459472656250e+00,5.393106937408447266e+00,5.421715259552001953e+00,5.448511123657226562e+00,5.476806163787841797e+00,5.503640174865722656e+00,5.526865959167480469e+00,5.548721313476562500e+00,5.578938484191894531e+00,5.604598045349121094e+00,5.635381221771240234e+00,5.663537502288818359e+00,5.689232349395751953e+00,5.713830947875976562e+00,5.740891933441162109e+00,5.771713256835937500e+00,5.811790466308593750e+00,5.852418899536132812e+00,5.890796661376953125e+00,5.926867961883544922e+00,5.967847824096679688e+00,6.006138324737548828e+00,6.049178600311279297e+00,6.092443466186523438e+00,6.128479480743408203e+00,6.160074710845947266e+00,6.203443527221679688e+00,6.247757911682128906e+00,6.284185886383056641e+00,6.331538677215576172e+00,6.371857643127441406e+00,6.420300006866455078e+00,6.478084087371826172e+00,6.530880928039550781e+00,6.570176601409912109e+00,6.621386528015136719e+00,6.675092220306396484e+00,6.735718727111816406e+00,6.793150424957275391e+00,6.853305339813232422e+00,6.896480083465576172e+00,6.968224048614501953e+00,7.020524024963378906e+00,7.118150711059570312e+00,7.202821254730224609e+00,7.295125007629394531e+00,7.358518123626708984e+00,7.377645969390869141e+00,7.366128921508789062e+00,7.322518825531005859e+00,7.248475074768066406e+00,7.127047538757324219e+00,6.900328636169433594e+00,6.720141887664794922e+00,6.720312595367431641e+00,6.757745265960693359e+00,6.737474918365478516e+00,6.889434814453125000e+00,7.188392639160156250e+00,7.352463245391845703e+00,7.498789787292480469e+00,7.566646575927734375e+00,7.640110969543457031e+00,7.666392326354980469e+00,7.643563270568847656e+00,7.649975299835205078e+00,7.185417175292968750e+00,5.830644607543945312e+00,5.116193771362304688e+00,5.009734630584716797e+00,5.042598724365234375e+00,5.139305114746093750e+00,5.232695102691650391e+00,5.271708488464355469e+00,5.318511962890625000e+00,5.376738548278808594e+00,5.438193798065185547e+00,5.400452613830566406e+00,5.340070247650146484e+00,5.303407669067382812e+00,5.190730094909667969e+00,5.175634860992431641e+00,5.204714775085449219e+00,5.162191867828369141e+00,5.293916702270507812e+00,5.916914939880371094e+00,7.349959850311279297e+00,8.295987129211425781e+00,8.467285156250000000e+00,8.468670845031738281e+00,8.599146842956542969e+00,8.708335876464843750e+00,8.846258163452148438e+00,8.990787506103515625e+00,9.077254295349121094e+00,9.161000251770019531e+00,9.247246742248535156e+00,9.348670005798339844e+00,9.602789878845214844e+00,9.840874671936035156e+00,1.017472553253173828e+01,1.051719760894775391e+01,1.078709983825683594e+01,1.116903686523437500e+01,1.153832244873046875e+01
5.058165073394775391e+00,5.086675643920898438e+00,5.111248970031738281e+00,5.136920928955078125e+00,5.166704654693603516e+00,5.198400020599365234e+00,5.228761196136474609e+00,5.254180908203125000e+00,5.281593799591064453e+00,5.308783054351806641e+00,5.338434219360351562e+00,5.362868309020996094e+00,5.384806632995605469e+00,5.410907268524169922e+00,5.436493396759033203e+00,5.461750507354736328e+00,5.491051197052001953e+00,5.518687248229980469e+00,5.544966220855712891e+00,5.572587966918945312e+00,5.594588756561279297e+00,5.614818572998046875e+00,5.644988536834716797e+00,5.674784183502197266e+00,5.702836036682128906e+00,5.729249477386474609e+00,5.756646156311035156e+00,5.783166885375976562e+00,5.810183525085449219e+00,5.841550827026367188e+00,5.880149364471435547e+00,5.923253059387207031e+00,5.962204456329345703e+00,6.001006126403808594e+00,6.043092250823974609e+00,6.085077285766601562e+00,6.125732898712158203e+00,6.168892860412597656e+00,6.211619377136230469e+00,6.242368698120117188e+00,6.284409999847412109e+00,6.326428890228271484e+00,6.366848468780517578e+00,6.409723758697509766e+00,6.446300506591796875e+00,6.485901355743408203e+00,6.536222457885742188e+00,6.585344314575195312e+00,6.626832008361816406e+00,6.675107479095458984e+00,6.735471248626708984e+00,6.796223163604736328e+00,6.852086544036865234e+00,6.899970531463623047e+00,6.937241077423095703e+00,7.001236438751220703e+00,7.052354812622070312e+00,7.135655879974365234e+00,7.213407516479492188e+00,7.307522773742675781e+00,7.365747451782226562e+00,7.382258415222167969e+00,7.369919300079345703e+00,7.321576595306396484e+00,7.225327491760253906e+00,7.128079414367675781e+00,6.948672771453857422e+00,6.778777599334716797e+00,6.725221633911132812e+00,6.730124950408935547e+00,6.747837066650390625e+00,6.948275566101074219e+00,7.283254146575927734e+00,7.427717208862304688e+00,7.564975261688232422e+00,7.638082027435302734e+00,7.705649852752685547e+00,7.740433692932128906e+00,7.717525959014892578e+00,7.700827121734619141e+00,7.190771102905273438e+00,5.785456180572509766e+00,5.078251838684082031e+00,4.988612174987792969e+00,5.030301570892333984e+00,5.123362064361572266e+00,5.201599597930908203e+00,5.229228496551513672e+00,5.279621124267578125e+00,5.336165428161621094e+00,5.397840499877929688e+00,5.373977184295654297e+00,5.336489200592041016e+00,5.310186862945556641e+00,5.196093082427978516e+00,5.185385704040527344e+00,5.192357540130615234e+00,5.142797946929931641e+00,5.278489589691162109e+00,5.974984169006347656e+00,7.485218524932861328e+00,8.364526748657226562e+00,8.497025489807128906e+00,8.511347770690917969e+00,8.658855438232421875e+00,8.768376350402832031e+00,8.907800674438476562e+00,9.041582107543945312e+00,9.109453201293945312e+00,9.190425872802734375e+00,9.293145179748535156e+00,9.381193161010742188e+00,9.625473022460937500e+00,9.859798431396484375e+00,1.026835536956787109e+01,1.059394645690917969e+01,1.090404891967773438e+01,1.125223636627197266e+01,1.166650104522705078e+01
5.091543674468994141e+00,5.121421813964843750e+00,5.150101661682128906e+00,5.176078796386718750e+00,5.207116127014160156e+00,5.240866184234619141e+00,5.272911548614501953e+00,5.299903392791748047e+00,5.327695369720458984e+00,5.358593463897705078e+00,5.388946533203125000e+00,5.416402339935302734e+00,5.443587779998779297e+00,5.471359729766845703e+00,5.498563766479492188e+00,5.526294231414794922e+00,5.553745269775390625e+00,5.581561088562011719e+00,5.605899810791015625e+00,5.631021499633789062e+00,5.651694297790527344e+00,5.673933506011962891e+00,5.702943801879882812e+00,5.731780052185058594e+00,5.760299682617187500e+00,5.789776325225830078e+00,5.819436550140380859e+00,5.849610328674316406e+00,5.878451347351074219e+00,5.910739421844482422e+00,5.947940826416015625e+00,5.987291812896728516e+00,6.026921749114990234e+00,6.065447807312011719e+00,6.108291149139404297e+00,6.149691581726074219e+00,6.187437057495117188e+00,6.231276512145996094e+00,6.280547142028808594e+00,6.313949584960937500e+00,6.352344989776611328e+00,6.390603065490722656e+00,6.436615467071533203e+00,6.470856189727783203e+00,6.505553245544433594e+00,6.545113563537597656e+00,6.594101428985595703e+00,6.640837192535400391e+00,6.688432693481445312e+00,6.744185447692871094e+00,6.810361862182617188e+00,6.873246192932128906e+00,6.934078693389892578e+00,6.980597019195556641e+00,7.024269104003906250e+00,7.084332466125488281e+00,7.141067028045654297e+00,7.221375942230224609e+00,7.288339614868164062e+00,7.363978385925292969e+00,7.403579235076904297e+00,7.433259010314941406e+00,7.444832324981689453e+00,7.398063659667968750e+00,7.317523002624511719e+00,7.228250980377197266e+00,7.061482906341552734e+00,6.898818969726562500e+00,6.783372402191162109e+00,6.767910003662109375e+00,6.803465366363525391e+00,7.029785156250000000e+00,7.400082111358642578e+00,7.517117977142333984e+00,7.650570869445800781e+00,7.719394683837890625e+00,7.770478725433349609e+00,7.782658576965332031e+00,7.755750656127929688e+00,7.720716476440429688e+00,7.116245269775390625e+00,5.691030979156494141e+00,5.062764167785644531e+00,5.009385108947753906e+00,5.028985977172851562e+00,5.097967147827148438e+00,5.176836013793945312e+00,5.196825027465820312e+00,5.239668369293212891e+00,5.286915779113769531e+00,5.342371940612792969e+00,5.326733112335205078e+00,5.297577381134033203e+00,5.272664546966552734e+00,5.161900520324707031e+00,5.142300605773925781e+00,5.138204574584960938e+00,5.089974880218505859e+00,5.236471176147460938e+00,5.990340709686279297e+00,7.557077884674072266e+00,8.389616966247558594e+00,8.482799530029296875e+00,8.516328811645507812e+00,8.676475524902343750e+00,8.800702095031738281e+00,8.941633224487304688e+00,9.066431999206542969e+00,9.138224601745605469e+00,9.191494941711425781e+00,9.307267189025878906e+00,9.360314369201660156e+00,9.549547195434570312e+00,9.761590003967285156e+00,1.015058326721191406e+01,1.047811126708984375e+01,1.084442234039306641e+01,1.116443634033203125e+01,1.159560012817382812e+01
5.084179401397705078e+00,5.115008354187011719e+00,5.145290374755859375e+00,5.173693656921386719e+00,5.205666542053222656e+00,5.239018440246582031e+00,5.272412776947021484e+00,5.300661563873291016e+00,5.331763267517089844e+00,5.365964412689208984e+00,5.399088382720947266e+00,5.428544521331787109e+00,5.458806991577148438e+00,5.487054347991943359e+00,5.518841266632080078e+00,5.546672821044921875e+00,5.571053504943847656e+00,5.596933841705322266e+00,5.618327140808105469e+00,5.638651371002197266e+00,5.661250114440917969e+00,5.684193611145019531e+00,5.712893486022949219e+00,5.739814758300781250e+00,5.770127773284912109e+00,5.800608158111572266e+00,5.833262920379638672e+00,5.863793373107910156e+00,5.894206523895263672e+00,5.925306320190429688e+00,5.963585376739501953e+00,6.001924037933349609e+00,6.042402267456054688e+00,6.081265449523925781e+00,6.126002788543701172e+00,6.167294979095458984e+00,6.205632209777832031e+00,6.250509738922119141e+00,6.304013729095458984e+00,6.343094825744628906e+00,6.383652210235595703e+00,6.426642894744873047e+00,6.476025104522705078e+00,6.510905265808105469e+00,6.550829887390136719e+00,6.596842765808105469e+00,6.654558181762695312e+00,6.705318927764892578e+00,6.765057563781738281e+00,6.830585479736328125e+00,6.900387763977050781e+00,6.970480918884277344e+00,7.039082050323486328e+00,7.092307090759277344e+00,7.140457153320312500e+00,7.205002307891845703e+00,7.282388210296630859e+00,7.363799571990966797e+00,7.426433086395263672e+00,7.490092754364013672e+00,7.507637500762939453e+00,7.527749538421630859e+00,7.556754112243652344e+00,7.514329433441162109e+00,7.446041107177734375e+00,7.334856033325195312e+00,7.136885166168212891e+00,6.972363948822021484e+00,6.824324131011962891e+00,6.800999164581298828e+00,6.834949493408203125e+00,7.084052085876464844e+00,7.473109722137451172e+00,7.574266433715820312e+00,7.705245494842529297e+00,7.771334648132324219e+00,7.800498962402343750e+00,7.787218570709228516e+00,7.744760990142822266e+00,7.689599514007568359e+00,6.994289398193359375e+00,5.615719795227050781e+00,5.063103675842285156e+00,5.026826381683349609e+00,5.019654750823974609e+00,5.075678825378417969e+00,5.159125804901123047e+00,5.171325683593750000e+00,5.211287498474121094e+00,5.254192829132080078e+00,5.297690391540527344e+00,5.281826496124267578e+00,5.250837802886962891e+00,5.230496883392333984e+00,5.125454902648925781e+00,5.108201980590820312e+00,5.104139328002929688e+00,5.067022800445556641e+00,5.191946983337402344e+00,5.965162277221679688e+00,7.595853805541992188e+00,8.390859603881835938e+00,8.468139648437500000e+00,8.511373519897460938e+00,8.691274642944335938e+00,8.810744285583496094e+00,8.942163467407226562e+00,9.050800323486328125e+00,9.119524955749511719e+00,9.171093940734863281e+00,9.255485534667968750e+00,9.279344558715820312e+00,9.407960891723632812e+00,9.611861228942871094e+00,1.003458976745605469e+01,1.036836624145507812e+01,1.075148963928222656e+01,1.105605792999267578e+01,1.152719783782958984e+01
5.063173770904541016e+00,5.094096183776855469e+00,5.124027729034423828e+00,5.152736663818359375e+00,5.182298183441162109e+00,5.215781688690185547e+00,5.251533508300781250e+00,5.280093669891357422e+00,5.313183307647705078e+00,5.350670814514160156e+00,5.384756565093994141e+00,5.414003849029541016e+00,5.445612430572509766e+00,5.475606441497802734e+00,5.506844997406005859e+00,5.534988403320312500e+00,5.559132099151611328e+00,5.586164951324462891e+00,5.608757972717285156e+00,5.630108356475830078e+00,5.655214786529541016e+00,5.677480220794677734e+00,5.706428050994873047e+00,5.734035968780517578e+00,5.764561176300048828e+00,5.794376850128173828e+00,5.826738357543945312e+00,5.858510017395019531e+00,5.888144016265869141e+00,5.922466754913330078e+00,5.963462352752685547e+00,6.006971836090087891e+00,6.049080848693847656e+00,6.091854095458984375e+00,6.138370037078857422e+00,6.183138847351074219e+00,6.224901676177978516e+00,6.273150444030761719e+00,6.326687812805175781e+00,6.370557785034179688e+00,6.407842636108398438e+00,6.454087734222412109e+00,6.504006862640380859e+00,6.546599388122558594e+00,6.591434478759765625e+00,6.639589309692382812e+00,6.700664043426513672e+00,6.754159450531005859e+00,6.814065456390380859e+00,6.880638599395751953e+00,6.951191425323486328e+00,7.021559715270996094e+00,7.090368747711181641e+00,7.153150081634521484e+00,7.202148914337158203e+00,7.259822368621826172e+00,7.340316772460937500e+00,7.416353702545166016e+00,7.475540161132812500e+00,7.534671783447265625e+00,7.561414241790771484e+00,7.580777168273925781e+00,7.585781574249267578e+00,7.540984630584716797e+00,7.453257083892822266e+00,7.356652259826660156e+00,7.166126728057861328e+00,6.973913192749023438e+00,6.800853729248046875e+00,6.770769596099853516e+00,6.818797588348388672e+00,7.095429420471191406e+00,7.524881362915039062e+00,7.617165088653564453e+00,7.751317024230957031e+00,7.811190605163574219e+00,7.813698768615722656e+00,7.755863189697265625e+00,7.698284626007080078e+00,7.614152431488037109e+00,6.856189727783203125e+00,5.543213367462158203e+00,5.052979946136474609e+00,5.015980243682861328e+00,5.018346309661865234e+00,5.073591232299804688e+00,5.153263568878173828e+00,5.166771411895751953e+00,5.210308074951171875e+00,5.252467632293701172e+00,5.291726112365722656e+00,5.277487277984619141e+00,5.247667312622070312e+00,5.229039669036865234e+00,5.126760005950927734e+00,5.110691547393798828e+00,5.107310295104980469e+00,5.076796054840087891e+00,5.179093360900878906e+00,5.951888561248779297e+00,7.590718746185302734e+00,8.370385169982910156e+00,8.450845718383789062e+00,8.498809814453125000e+00,8.675101280212402344e+00,8.791357040405273438e+00,8.918978691101074219e+00,9.014910697937011719e+00,9.075036048889160156e+00,9.103264808654785156e+00,9.171293258666992188e+00,9.163197517395019531e+00,9.257532119750976562e+00,9.448931694030761719e+00,9.897564888000488281e+00,1.026622104644775391e+01,1.067549419403076172e+01,1.095365047454833984e+01,1.137337970733642578e+01
5.061254024505615234e+00,5.093642711639404297e+00,5.123054504394531250e+00,5.151271343231201172e+00,5.180366992950439453e+00,5.216862678527832031e+00,5.255912780761718750e+00,5.285415649414062500e+00,5.318106651306152344e+00,5.354556083679199219e+00,5.389313697814941406e+00,5.420189857482910156e+00,5.454208850860595703e+00,5.485414028167724609e+00,5.517641067504882812e+00,5.544908046722412109e+00,5.568780899047851562e+00,5.597360610961914062e+00,5.625627040863037109e+00,5.650526523590087891e+00,5.675027370452880859e+00,5.698392868041992188e+00,5.731008052825927734e+00,5.757778167724609375e+00,5.785686492919921875e+00,5.815208435058593750e+00,5.846827507019042969e+00,5.879446506500244141e+00,5.913532733917236328e+00,5.949902534484863281e+00,5.995158195495605469e+00,6.039695262908935547e+00,6.085879802703857422e+00,6.130739212036132812e+00,6.181881427764892578e+00,6.226268768310546875e+00,6.272594451904296875e+00,6.319730281829833984e+00,6.372017383575439453e+00,6.415507793426513672e+00,6.455498218536376953e+00,6.501258373260498047e+00,6.549543857574462891e+00,6.594417095184326172e+00,6.644551277160644531e+00,6.693956851959228516e+00,6.756370544433593750e+00,6.808741092681884766e+00,6.869500160217285156e+00,6.935823917388916016e+00,7.005432128906250000e+00,7.073480129241943359e+00,7.139859199523925781e+00,7.200741291046142578e+00,7.254084587097167969e+00,7.308768272399902344e+00,7.374168395996093750e+00,7.444577217102050781e+00,7.503155231475830078e+00,7.555482387542724609e+00,7.588744640350341797e+00,7.608426094055175781e+00,7.614509105682373047e+00,7.564545154571533203e+00,7.470553874969482422e+00,7.378274917602539062e+00,7.210524559020996094e+00,7.021580219268798828e+00,6.821777820587158203e+00,6.768948554992675781e+00,6.802929401397705078e+00,7.075052738189697266e+00,7.519166469573974609e+00,7.615047454833984375e+00,7.736509323120117188e+00,7.797065734863281250e+00,7.801412105560302734e+00,7.752037048339843750e+00,7.683516502380371094e+00,7.578836917877197266e+00,6.768006324768066406e+00,5.506467342376708984e+00,5.044884681701660156e+00,5.013643741607666016e+00,5.026430130004882812e+00,5.096409320831298828e+00,5.173808574676513672e+00,5.187026023864746094e+00,5.237625598907470703e+00,5.273043155670166016e+00,5.304684638977050781e+00,5.287017345428466797e+00,5.252652645111083984e+00,5.231200218200683594e+00,5.135179042816162109e+00,5.112709522247314453e+00,5.103022575378417969e+00,5.077218532562255859e+00,5.172539710998535156e+00,5.940555095672607422e+00,7.553274154663085938e+00,8.281515121459960938e+00,8.387220382690429688e+00,8.447278976440429688e+00,8.621797561645507812e+00,8.741013526916503906e+00,8.871088027954101562e+00,8.965771675109863281e+00,9.004595756530761719e+00,9.035023689270019531e+00,9.084944725036621094e+00,9.059351921081542969e+00,9.113909721374511719e+00,9.294761657714843750e+00,9.769615173339843750e+00,1.016829013824462891e+01,1.057446098327636719e+01,1.084269237518310547e+01,1.124801826477050781e+01
5.054631710052490234e+00,5.088678359985351562e+00,5.117966175079345703e+00,5.145928859710693359e+00,5.178090095520019531e+00,5.216163158416748047e+00,5.253139495849609375e+00,5.283167362213134766e+00,5.315796852111816406e+00,5.355247497558593750e+00,5.391152381896972656e+00,5.423328876495361328e+00,5.458091735839843750e+00,5.490124702453613281e+00,5.523584842681884766e+00,5.548225402832031250e+00,5.572718620300292969e+00,5.601526737213134766e+00,5.630007266998291016e+00,5.654685974121093750e+00,5.679485321044921875e+00,5.699882507324218750e+00,5.730581760406494141e+00,5.755095958709716797e+00,5.781691551208496094e+00,5.807681083679199219e+00,5.838045120239257812e+00,5.869536399841308594e+00,5.903351306915283203e+00,5.940633773803710938e+00,5.986108779907226562e+00,6.029348850250244141e+00,6.074708461761474609e+00,6.118226528167724609e+00,6.171128749847412109e+00,6.213737964630126953e+00,6.258226394653320312e+00,6.302323341369628906e+00,6.351618766784667969e+00,6.394548416137695312e+00,6.440166950225830078e+00,6.486587047576904297e+00,6.536674499511718750e+00,6.582165718078613281e+00,6.632151603698730469e+00,6.680922031402587891e+00,6.746434688568115234e+00,6.801092147827148438e+00,6.864539623260498047e+00,6.928627014160156250e+00,7.001569747924804688e+00,7.070062160491943359e+00,7.137792110443115234e+00,7.197957992553710938e+00,7.256818771362304688e+00,7.310620307922363281e+00,7.367500305175781250e+00,7.427804946899414062e+00,7.488210678100585938e+00,7.537176132202148438e+00,7.560736656188964844e+00,7.580141544342041016e+00,7.597677707672119141e+00,7.555119991302490234e+00,7.480642795562744141e+00,7.392527580261230469e+00,7.219902992248535156e+00,7.056633472442626953e+00,6.855102539062500000e+00,6.802327632904052734e+00,6.830799102783203125e+00,7.073050975799560547e+00,7.496904373168945312e+00,7.590488433837890625e+00,7.708920955657958984e+00,7.786655426025390625e+00,7.786105155944824219e+00,7.762586593627929688e+00,7.700290203094482422e+00,7.576359272003173828e+00,6.750701904296875000e+00,5.515311717987060547e+00,5.072244167327880859e+00,5.037153244018554688e+00,5.057926654815673828e+00,5.128900051116943359e+00,5.203380584716796875e+00,5.219599723815917969e+00,5.264870166778564453e+00,5.293203830718994141e+00,5.323001384735107422e+00,5.301858901977539062e+00,5.272450447082519531e+00,5.257412433624267578e+00,5.158012866973876953e+00,5.131234645843505859e+00,5.105310916900634766e+00,5.077327251434326172e+00,5.172715663909912109e+00,5.938285350799560547e+00,7.498678207397460938e+00,8.178582191467285156e+00,8.299498558044433594e+00,8.390025138854980469e+00,8.569628715515136719e+00,8.697047233581542969e+00,8.827291488647460938e+00,8.918540000915527344e+00,8.956506729125976562e+00,8.966536521911621094e+00,9.013843536376953125e+00,8.964979171752929688e+00,8.992410659790039062e+00,9.176552772521972656e+00,9.681071281433105469e+00,1.012538909912109375e+01,1.052475261688232422e+01,1.076148605346679688e+01,1.115212726593017578e+01
5.042451381683349609e+00,5.077975273132324219e+00,5.109222888946533203e+00,5.137244701385498047e+00,5.170790195465087891e+00,5.208004474639892578e+00,5.241404056549072266e+00,5.270517826080322266e+00,5.304422378540039062e+00,5.344352722167968750e+00,5.383250236511230469e+00,5.415759086608886719e+00,5.449252128601074219e+00,5.479796409606933594e+00,5.512998104095458984e+00,5.538248062133789062e+00,5.561502456665039062e+00,5.591339111328125000e+00,5.616976261138916016e+00,5.643326282501220703e+00,5.668385505676269531e+00,5.688810348510742188e+00,5.715733528137207031e+00,5.740248203277587891e+00,5.765215396881103516e+00,5.788805961608886719e+00,5.817442417144775391e+00,5.847769260406494141e+00,5.879422664642333984e+00,5.914350032806396484e+00,5.957120895385742188e+00,5.997643470764160156e+00,6.040737628936767578e+00,6.083210468292236328e+00,6.134569168090820312e+00,6.172916412353515625e+00,6.212183475494384766e+00,6.250559329986572266e+00,6.297175884246826172e+00,6.337617397308349609e+00,6.383327960968017578e+00,6.428217411041259766e+00,6.478126525878906250e+00,6.523277759552001953e+00,6.573073387145996094e+00,6.623863697052001953e+00,6.689875125885009766e+00,6.743831157684326172e+00,6.807496070861816406e+00,6.868841171264648438e+00,6.941706657409667969e+00,7.007071971893310547e+00,7.075095653533935547e+00,7.134236335754394531e+00,7.194734096527099609e+00,7.248620510101318359e+00,7.302909851074218750e+00,7.362939834594726562e+00,7.428275585174560547e+00,7.477085113525390625e+00,7.505072593688964844e+00,7.526869297027587891e+00,7.537887096405029297e+00,7.506439685821533203e+00,7.441345691680908203e+00,7.358671665191650391e+00,7.205069541931152344e+00,7.070138931274414062e+00,6.892930030822753906e+00,6.848931789398193359e+00,6.874300479888916016e+00,7.102276802062988281e+00,7.491014480590820312e+00,7.561309814453125000e+00,7.677384376525878906e+00,7.737656593322753906e+00,7.734599113464355469e+00,7.717618465423583984e+00,7.666692256927490234e+00,7.531093120574951172e+00,6.678089618682861328e+00,5.502827644348144531e+00,5.089342117309570312e+00,5.066773414611816406e+00,5.079201698303222656e+00,5.150857925415039062e+00,5.227340221405029297e+00,5.235667228698730469e+00,5.280548572540283203e+00,5.310713291168212891e+00,5.343312740325927734e+00,5.330841541290283203e+00,5.292469978332519531e+00,5.269873142242431641e+00,5.162585735321044922e+00,5.133308410644531250e+00,5.105756759643554688e+00,5.077052593231201172e+00,5.174221515655517578e+00,5.937877178192138672e+00,7.436161994934082031e+00,8.035554885864257812e+00,8.195094108581542969e+00,8.291916847229003906e+00,8.478956222534179688e+00,8.603425025939941406e+00,8.731771469116210938e+00,8.817352294921875000e+00,8.840151786804199219e+00,8.859636306762695312e+00,8.895981788635253906e+00,8.839103698730468750e+00,8.851738929748535156e+00,9.036027908325195312e+00,9.563399314880371094e+00,1.003141307830810547e+01,1.041613864898681641e+01,1.063636684417724609e+01,1.100447082519531250e+01
5.038858890533447266e+00,5.075089931488037109e+00,5.109796524047851562e+00,5.138384819030761719e+00,5.171374320983886719e+00,5.208216667175292969e+00,5.240619659423828125e+00,5.268435001373291016e+00,5.300560474395751953e+00,5.340990543365478516e+00,5.381976127624511719e+00,5.413709163665771484e+00,5.444560527801513672e+00,5.474698543548583984e+00,5.507823467254638672e+00,5.535348415374755859e+00,5.561210632324218750e+00,5.591202735900878906e+00,5.615677833557128906e+00,5.641983509063720703e+00,5.666418075561523438e+00,5.687971591949462891e+00,5.712113380432128906e+00,5.733111381530761719e+00,5.754786968231201172e+00,5.778521060943603516e+00,5.808925628662109375e+00,5.836001873016357422e+00,5.865402698516845703e+00,5.897502899169921875e+00,5.938690185546875000e+00,5.977438926696777344e+00,6.019531250000000000e+00,6.059915065765380859e+00,6.105576038360595703e+00,6.141819953918457031e+00,6.178684234619140625e+00,6.214095592498779297e+00,6.258811473846435547e+00,6.297041416168212891e+00,6.337848663330078125e+00,6.379462718963623047e+00,6.425509452819824219e+00,6.468506336212158203e+00,6.517677307128906250e+00,6.564822673797607422e+00,6.627758979797363281e+00,6.677249431610107422e+00,6.737088203430175781e+00,6.794818401336669922e+00,6.864566802978515625e+00,6.927288532257080078e+00,6.992489337921142578e+00,7.053904533386230469e+00,7.117411613464355469e+00,7.170078277587890625e+00,7.225086688995361328e+00,7.283771514892578125e+00,7.348530769348144531e+00,7.397494792938232422e+00,7.433238029479980469e+00,7.459758758544921875e+00,7.475457191467285156e+00,7.458284378051757812e+00,7.403207778930664062e+00,7.340774536132812500e+00,7.209980964660644531e+00,7.101535320281982422e+00,6.945369243621826172e+00,6.885565757751464844e+00,6.896187305450439453e+00,7.097983837127685547e+00,7.460344791412353516e+00,7.524068832397460938e+00,7.634191989898681641e+00,7.699503898620605469e+00,7.678239822387695312e+00,7.659286975860595703e+00,7.614102840423583984e+00,7.471592903137207031e+00,6.618039131164550781e+00,5.489648342132568359e+00,5.104182243347167969e+00,5.071799755096435547e+00,5.084199428558349609e+00,5.156392097473144531e+00,5.232967853546142578e+00,5.237713813781738281e+00,5.277585029602050781e+00,5.311209678649902344e+00,5.348703384399414062e+00,5.339347362518310547e+00,5.296984672546386719e+00,5.274530410766601562e+00,5.169353008270263672e+00,5.138759136199951172e+00,5.110320568084716797e+00,5.108361244201660156e+00,5.220893859863281250e+00,5.983002662658691406e+00,7.404628753662109375e+00,7.953795433044433594e+00,8.104226112365722656e+00,8.208446502685546875e+00,8.394707679748535156e+00,8.519984245300292969e+00,8.646941184997558594e+00,8.722681045532226562e+00,8.751409530639648438e+00,8.760663032531738281e+00,8.794645309448242188e+00,8.732981681823730469e+00,8.744293212890625000e+00,8.953426361083984375e+00,9.509005546569824219e+00,9.978363990783691406e+00,1.033314514160156250e+01,1.051490497589111328e+01,1.085874843597412109e+01
5.014665126800537109e+00,5.052019596099853516e+00,5.088393688201904297e+00,5.119627475738525391e+00,5.153756618499755859e+00,5.191606521606445312e+00,5.225234031677246094e+00,5.252641677856445312e+00,5.284093379974365234e+00,5.324579715728759766e+00,5.365231037139892578e+00,5.397669315338134766e+00,5.426919460296630859e+00,5.457149028778076172e+00,5.490817546844482422e+00,5.519373893737792969e+00,5.546928882598876953e+00,5.575164318084716797e+00,5.599593639373779297e+00,5.623606681823730469e+00,5.646995067596435547e+00,5.669745445251464844e+00,5.691311836242675781e+00,5.712132453918457031e+00,5.734492778778076172e+00,5.757911682128906250e+00,5.786604404449462891e+00,5.811223983764648438e+00,5.836416244506835938e+00,5.867357254028320312e+00,5.906880378723144531e+00,5.943109035491943359e+00,5.981688022613525391e+00,6.019575595855712891e+00,6.060196399688720703e+00,6.095770835876464844e+00,6.132259368896484375e+00,6.166939735412597656e+00,6.207506179809570312e+00,6.242593288421630859e+00,6.281183719635009766e+00,6.322171211242675781e+00,6.364140987396240234e+00,6.405646800994873047e+00,6.451830863952636719e+00,6.498766899108886719e+00,6.555668830871582031e+00,6.605598449707031250e+00,6.663127422332763672e+00,6.719481945037841797e+00,6.786032199859619141e+00,6.845858573913574219e+00,6.908607482910156250e+00,6.969344615936279297e+00,7.034867286682128906e+00,7.089705467224121094e+00,7.145277023315429688e+00,7.204011917114257812e+00,7.271412372589111328e+00,7.317295551300048828e+00,7.357059001922607422e+00,7.387372016906738281e+00,7.406216621398925781e+00,7.397838115692138672e+00,7.368265151977539062e+00,7.326442241668701172e+00,7.223908901214599609e+00,7.128593921661376953e+00,7.001335620880126953e+00,6.956394195556640625e+00,6.959267616271972656e+00,7.157204627990722656e+00,7.461593151092529297e+00,7.511015892028808594e+00,7.613646030426025391e+00,7.663460254669189453e+00,7.649618625640869141e+00,7.626344203948974609e+00,7.560536384582519531e+00,7.412366390228271484e+00,6.560895919799804688e+00,5.489116668701171875e+00,5.121816158294677734e+00,5.095467090606689453e+00,5.110907077789306641e+00,5.185269832611083984e+00,5.257724285125732422e+00,5.255911827087402344e+00,5.298389911651611328e+00,5.333894252777099609e+00,5.367020606994628906e+00,5.353619098663330078e+00,5.296047210693359375e+00,5.264982700347900391e+00,5.169672012329101562e+00,5.134981155395507812e+00,5.118194580078125000e+00,5.137600421905517578e+00,5.285611629486083984e+00,6.034939289093017578e+00,7.352326393127441406e+00,7.838747501373291016e+00,7.997129440307617188e+00,8.093404769897460938e+00,8.267789840698242188e+00,8.385574340820312500e+00,8.508260726928710938e+00,8.595983505249023438e+00,8.624448776245117188e+00,8.652770042419433594e+00,8.672552108764648438e+00,8.602816581726074219e+00,8.586142539978027344e+00,8.770516395568847656e+00,9.343259811401367188e+00,9.838474273681640625e+00,1.013128662109375000e+01,1.026247787475585938e+01,1.056746387481689453e+01
4.977470874786376953e+00,5.015008926391601562e+00,5.052604198455810547e+00,5.085075855255126953e+00,5.121277332305908203e+00,5.159582614898681641e+00,5.196504592895507812e+00,5.225199699401855469e+00,5.257557868957519531e+00,5.297398567199707031e+00,5.334892749786376953e+00,5.367334842681884766e+00,5.398747920989990234e+00,5.429562568664550781e+00,5.464330196380615234e+00,5.491484642028808594e+00,5.517904281616210938e+00,5.544041633605957031e+00,5.570440769195556641e+00,5.594810962677001953e+00,5.618614673614501953e+00,5.642214298248291016e+00,5.669486045837402344e+00,5.692209720611572266e+00,5.716056346893310547e+00,5.736696243286132812e+00,5.763261318206787109e+00,5.786749839782714844e+00,5.811151981353759766e+00,5.840233802795410156e+00,5.878817558288574219e+00,5.912681102752685547e+00,5.948682785034179688e+00,5.983992099761962891e+00,6.020832061767578125e+00,6.054514884948730469e+00,6.088220596313476562e+00,6.121069431304931641e+00,6.156645774841308594e+00,6.189575672149658203e+00,6.226366043090820312e+00,6.266639232635498047e+00,6.309103012084960938e+00,6.349431991577148438e+00,6.392572879791259766e+00,6.438839435577392578e+00,6.494104385375976562e+00,6.542649269104003906e+00,6.595679759979248047e+00,6.646649837493896484e+00,6.709738731384277344e+00,6.768568515777587891e+00,6.826766967773437500e+00,6.887717723846435547e+00,6.954542160034179688e+00,7.010664939880371094e+00,7.067856788635253906e+00,7.123147964477539062e+00,7.192503929138183594e+00,7.235897541046142578e+00,7.278377532958984375e+00,7.308546066284179688e+00,7.329186916351318359e+00,7.330075263977050781e+00,7.317054748535156250e+00,7.298352718353271484e+00,7.208648204803466797e+00,7.120581626892089844e+00,7.014688491821289062e+00,6.967021465301513672e+00,6.982131004333496094e+00,7.151197910308837891e+00,7.429474830627441406e+00,7.496264934539794922e+00,7.576861381530761719e+00,7.618468761444091797e+00,7.585661888122558594e+00,7.570270061492919922e+00,7.507132530212402344e+00,7.353674411773681641e+00,6.491266250610351562e+00,5.478529453277587891e+00,5.142440319061279297e+00,5.112773895263671875e+00,5.136537075042724609e+00,5.215319633483886719e+00,5.284606933593750000e+00,5.292709350585937500e+00,5.336828708648681641e+00,5.376517772674560547e+00,5.399587631225585938e+00,5.373815059661865234e+00,5.303884029388427734e+00,5.267122745513916016e+00,5.188483715057373047e+00,5.174320220947265625e+00,5.160906314849853516e+00,5.185382843017578125e+00,5.339894294738769531e+00,6.042839527130126953e+00,7.228107452392578125e+00,7.676054954528808594e+00,7.854212284088134766e+00,7.956796646118164062e+00,8.109117507934570312e+00,8.214565277099609375e+00,8.337448120117187500e+00,8.424553871154785156e+00,8.457003593444824219e+00,8.472368240356445312e+00,8.482353210449218750e+00,8.381510734558105469e+00,8.277458190917968750e+00,8.432748794555664062e+00,9.076927185058593750e+00,9.677472114562988281e+00,9.989234924316406250e+00,1.004429531097412109e+01,1.030070877075195312e+01
4.948315620422363281e+00,4.986197948455810547e+00,5.022907257080078125e+00,5.055521011352539062e+00,5.094964981079101562e+00,5.135555267333984375e+00,5.172632217407226562e+00,5.198229312896728516e+00,5.232602596282958984e+00,5.268800735473632812e+00,5.303347587585449219e+00,5.332333564758300781e+00,5.366042137145996094e+00,5.396078586578369141e+00,5.429940700531005859e+00,5.452559947967529297e+00,5.477621555328369141e+00,5.500771045684814453e+00,5.529335021972656250e+00,5.554480552673339844e+00,5.580826282501220703e+00,5.603148937225341797e+00,5.632395744323730469e+00,5.654232978820800781e+00,5.679210186004638672e+00,5.699854850769042969e+00,5.723202228546142578e+00,5.743439197540283203e+00,5.769672393798828125e+00,5.796328067779541016e+00,5.830936431884765625e+00,5.862344264984130859e+00,5.898970603942871094e+00,5.933360099792480469e+00,5.968353271484375000e+00,6.000008583068847656e+00,6.033411979675292969e+00,6.064750194549560547e+00,6.098193168640136719e+00,6.129878044128417969e+00,6.166194915771484375e+00,6.204002380371093750e+00,6.244548797607421875e+00,6.280984878540039062e+00,6.323696136474609375e+00,6.367659568786621094e+00,6.418888568878173828e+00,6.463365077972412109e+00,6.513537406921386719e+00,6.561049938201904297e+00,6.618124485015869141e+00,6.671839714050292969e+00,6.727522373199462891e+00,6.786417007446289062e+00,6.851043701171875000e+00,6.910813808441162109e+00,6.967282295227050781e+00,7.025897502899169922e+00,7.091759204864501953e+00,7.139640331268310547e+00,7.185652732849121094e+00,7.223183631896972656e+00,7.244573593139648438e+00,7.253013610839843750e+00,7.252204895019531250e+00,7.245717525482177734e+00,7.183598041534423828e+00,7.113043308258056641e+00,7.022146701812744141e+00,6.993270874023437500e+00,7.030049800872802734e+00,7.195402622222900391e+00,7.435680389404296875e+00,7.482370853424072266e+00,7.536953926086425781e+00,7.553849220275878906e+00,7.516788482666015625e+00,7.502307415008544922e+00,7.436578750610351562e+00,7.274909973144531250e+00,6.361710548400878906e+00,5.443755149841308594e+00,5.149958133697509766e+00,5.131044864654541016e+00,5.155995368957519531e+00,5.227658271789550781e+00,5.297486305236816406e+00,5.319508075714111328e+00,5.364364624023437500e+00,5.398740768432617188e+00,5.416797637939453125e+00,5.387482166290283203e+00,5.307252883911132812e+00,5.255765914916992188e+00,5.183442115783691406e+00,5.178798198699951172e+00,5.178413867950439453e+00,5.209202766418457031e+00,5.365160465240478516e+00,6.003299713134765625e+00,7.047354698181152344e+00,7.459161758422851562e+00,7.655010700225830078e+00,7.737925529479980469e+00,7.888726711273193359e+00,7.987228393554687500e+00,8.087585449218750000e+00,8.168238639831542969e+00,8.181640625000000000e+00,8.201525688171386719e+00,8.169379234313964844e+00,8.001177787780761719e+00,7.800466060638427734e+00,7.890832424163818359e+00,8.542317390441894531e+00,9.264493942260742188e+00,9.644449234008789062e+00,9.679205894470214844e+00,9.898007392883300781e+00
4.917149066925048828e+00,4.954117298126220703e+00,4.991469860076904297e+00,5.024821758270263672e+00,5.064288139343261719e+00,5.104038238525390625e+00,5.137919425964355469e+00,5.160251617431640625e+00,5.191645622253417969e+00,5.225222110748291016e+00,5.260080337524414062e+00,5.286956787109375000e+00,5.320670127868652344e+00,5.349071502685546875e+00,5.379680633544921875e+00,5.399654388427734375e+00,5.424301624298095703e+00,5.447628498077392578e+00,5.475711345672607422e+00,5.499432086944580078e+00,5.526560783386230469e+00,5.547037601470947266e+00,5.572867870330810547e+00,5.593054294586181641e+00,5.616122245788574219e+00,5.634303092956542969e+00,5.655381202697753906e+00,5.672769069671630859e+00,5.698903560638427734e+00,5.722861766815185547e+00,5.753278732299804688e+00,5.782259464263916016e+00,5.819174766540527344e+00,5.853044509887695312e+00,5.887263774871826172e+00,5.918903350830078125e+00,5.950932025909423828e+00,5.982178211212158203e+00,6.016844272613525391e+00,6.047668457031250000e+00,6.083673954010009766e+00,6.118195056915283203e+00,6.157032489776611328e+00,6.190498352050781250e+00,6.234382629394531250e+00,6.276097774505615234e+00,6.324849128723144531e+00,6.367665767669677734e+00,6.416178226470947266e+00,6.461157798767089844e+00,6.513789653778076172e+00,6.562558650970458984e+00,6.619356155395507812e+00,6.673429012298583984e+00,6.738903045654296875e+00,6.795510768890380859e+00,6.851958751678466797e+00,6.907146930694580078e+00,6.976809501647949219e+00,7.023410320281982422e+00,7.071858882904052734e+00,7.108703136444091797e+00,7.138444423675537109e+00,7.152578830718994141e+00,7.152909755706787109e+00,7.155809402465820312e+00,7.109587192535400391e+00,7.066368579864501953e+00,6.990176677703857422e+00,6.971838474273681641e+00,7.034751415252685547e+00,7.174245357513427734e+00,7.380028724670410156e+00,7.430359840393066406e+00,7.460606098175048828e+00,7.467636108398437500e+00,7.428680419921875000e+00,7.413862228393554688e+00,7.357169151306152344e+00,7.162646770477294922e+00,6.177544593811035156e+00,5.362248420715332031e+00,5.124512672424316406e+00,5.110837936401367188e+00,5.134096622467041016e+00,5.202532291412353516e+00,5.288132190704345703e+00,5.335364341735839844e+00,5.387251853942871094e+00,5.415907859802246094e+00,5.425390243530273438e+00,5.388101577758789062e+00,5.302273273468017578e+00,5.251194477081298828e+00,5.178487300872802734e+00,5.176146984100341797e+00,5.176263332366943359e+00,5.218966007232666016e+00,5.379163742065429688e+00,5.942515850067138672e+00,6.897187232971191406e+00,7.323556423187255859e+00,7.502179622650146484e+00,7.552113056182861328e+00,7.672897815704345703e+00,7.741829872131347656e+00,7.820573806762695312e+00,7.872382164001464844e+00,7.878745555877685547e+00,7.889944553375244141e+00,7.792458534240722656e+00,7.568641662597656250e+00,7.314374446868896484e+00,7.302565097808837891e+00,7.883580207824707031e+00,8.739025115966796875e+00,9.262769699096679688e+00,9.312580108642578125e+00,9.498396873474121094e+00
4.849058628082275391e+00,4.886785030364990234e+00,4.922631263732910156e+00,4.956076145172119141e+00,4.994358062744140625e+00,5.034118175506591797e+00,5.065430164337158203e+00,5.088871002197265625e+00,5.117063522338867188e+00,5.151312828063964844e+00,5.185622215270996094e+00,5.214812278747558594e+00,5.245366573333740234e+00,5.273638248443603516e+00,5.301898956298828125e+00,5.323477745056152344e+00,5.347210884094238281e+00,5.371431827545166016e+00,5.398164749145507812e+00,5.423225402832031250e+00,5.448009967803955078e+00,5.469671726226806641e+00,5.491516590118408203e+00,5.512487888336181641e+00,5.531922817230224609e+00,5.550654888153076172e+00,5.569562435150146484e+00,5.584671020507812500e+00,5.607861042022705078e+00,5.630369186401367188e+00,5.657806396484375000e+00,5.683296203613281250e+00,5.717208385467529297e+00,5.746911525726318359e+00,5.779703617095947266e+00,5.806138515472412109e+00,5.837199687957763672e+00,5.867352008819580078e+00,5.900713443756103516e+00,5.931728363037109375e+00,5.966190338134765625e+00,5.998981475830078125e+00,6.035333633422851562e+00,6.066831588745117188e+00,6.106667995452880859e+00,6.142242908477783203e+00,6.187867164611816406e+00,6.226653099060058594e+00,6.270100593566894531e+00,6.311113357543945312e+00,6.360660076141357422e+00,6.407109737396240234e+00,6.461421012878417969e+00,6.511370658874511719e+00,6.571507930755615234e+00,6.626192569732666016e+00,6.677771091461181641e+00,6.731418609619140625e+00,6.797910213470458984e+00,6.842663288116455078e+00,6.891840934753417969e+00,6.933681011199951172e+00,6.970975875854492188e+00,6.990442276000976562e+00,6.997802257537841797e+00,7.004567623138427734e+00,6.977623939514160156e+00,6.951303482055664062e+00,6.910905838012695312e+00,6.910927295684814453e+00,6.967416763305664062e+00,7.083198070526123047e+00,7.257932662963867188e+00,7.307400703430175781e+00,7.334926605224609375e+00,7.342965602874755859e+00,7.303223133087158203e+00,7.279392242431640625e+00,7.226078987121582031e+00,7.006890296936035156e+00,6.015161514282226562e+00,5.335411548614501953e+00,5.133825302124023438e+00,5.117350578308105469e+00,5.134644985198974609e+00,5.205660820007324219e+00,5.301458835601806641e+00,5.357996463775634766e+00,5.404250144958496094e+00,5.418479442596435547e+00,5.422185420989990234e+00,5.380578041076660156e+00,5.285889625549316406e+00,5.234519958496093750e+00,5.172068595886230469e+00,5.175362110137939453e+00,5.182479381561279297e+00,5.223154067993164062e+00,5.382222175598144531e+00,5.843855381011962891e+00,6.638170242309570312e+00,7.041942119598388672e+00,7.250607967376708984e+00,7.301796436309814453e+00,7.377436637878417969e+00,7.425559520721435547e+00,7.468216896057128906e+00,7.508630752563476562e+00,7.496912956237792969e+00,7.486960887908935547e+00,7.339703083038330078e+00,7.066940784454345703e+00,6.777503967285156250e+00,6.710645198822021484e+00,7.142763137817382812e+00,7.965523719787597656e+00,8.556060791015625000e+00,8.718284606933593750e+00,8.929536819458007812e+00
4.776185989379882812e+00,4.812346458435058594e+00,4.848250389099121094e+00,4.881314277648925781e+00,4.915882587432861328e+00,4.954862117767333984e+00,4.985820293426513672e+00,5.010642051696777344e+00,5.034834861755371094e+00,5.068571567535400391e+00,5.101854324340820312e+00,5.130892753601074219e+00,5.157170295715332031e+00,5.183526039123535156e+00,5.211014270782470703e+00,5.232681751251220703e+00,5.253823757171630859e+00,5.277720451354980469e+00,5.303324222564697266e+00,5.329499721527099609e+00,5.354344367980957031e+00,5.378929615020751953e+00,5.400497913360595703e+00,5.423933506011962891e+00,5.442434787750244141e+00,5.464277744293212891e+00,5.481268882751464844e+00,5.497910976409912109e+00,5.519587993621826172e+00,5.541505336761474609e+00,5.565736293792724609e+00,5.591076374053955078e+00,5.622424125671386719e+00,5.648557662963867188e+00,5.675260543823242188e+00,5.698292255401611328e+00,5.726912498474121094e+00,5.756240367889404297e+00,5.786944866180419922e+00,5.817712783813476562e+00,5.849800109863281250e+00,5.879907608032226562e+00,5.911986827850341797e+00,5.939655780792236328e+00,5.975205421447753906e+00,6.004767417907714844e+00,6.047441482543945312e+00,6.083260536193847656e+00,6.123271465301513672e+00,6.159134387969970703e+00,6.204533576965332031e+00,6.245782375335693359e+00,6.291301250457763672e+00,6.331220626831054688e+00,6.389165401458740234e+00,6.441716670989990234e+00,6.492158412933349609e+00,6.535157680511474609e+00,6.597211360931396484e+00,6.639561653137207031e+00,6.688834190368652344e+00,6.729303359985351562e+00,6.770648002624511719e+00,6.796844959259033203e+00,6.807250976562500000e+00,6.820102214813232422e+00,6.809647083282470703e+00,6.801771640777587891e+00,6.786890983581542969e+00,6.798499584197998047e+00,6.855598926544189453e+00,6.938268661499023438e+00,7.077795982360839844e+00,7.130424022674560547e+00,7.159141540527343750e+00,7.172360420227050781e+00,7.137529373168945312e+00,7.112201213836669922e+00,7.066178321838378906e+00,6.824819087982177734e+00,5.881767749786376953e+00,5.308220386505126953e+00,5.130098342895507812e+00,5.122342586517333984e+00,5.149664878845214844e+00,5.213117122650146484e+00,5.319050788879394531e+00,5.383929729461669922e+00,5.432127475738525391e+00,5.437305450439453125e+00,5.439907073974609375e+00,5.390530109405517578e+00,5.280064105987548828e+00,5.224247455596923828e+00,5.175808429718017578e+00,5.211590766906738281e+00,5.232182502746582031e+00,5.271855831146240234e+00,5.416576862335205078e+00,5.740958213806152344e+00,6.327700138092041016e+00,6.695098400115966797e+00,6.955565929412841797e+00,7.048168182373046875e+00,7.113090991973876953e+00,7.146947860717773438e+00,7.183796405792236328e+00,7.206242084503173828e+00,7.172006607055664062e+00,7.141099452972412109e+00,6.962406158447265625e+00,6.633133888244628906e+00,6.360539913177490234e+00,6.309058666229248047e+00,6.608947753906250000e+00,7.260492324829101562e+00,7.762560844421386719e+00,8.035107612609863281e+00,8.355351448059082031e+00
4.709975242614746094e+00,4.742973804473876953e+00,4.776505470275878906e+00,4.805234909057617188e+00,4.836359024047851562e+00,4.868516921997070312e+00,4.896408557891845703e+00,4.916503429412841797e+00,4.940256595611572266e+00,4.970974445343017578e+00,5.001586914062500000e+00,5.026526927947998047e+00,5.051902294158935547e+00,5.074977397918701172e+00,5.097746372222900391e+00,5.114112854003906250e+00,5.134715557098388672e+00,5.154654979705810547e+00,5.176317691802978516e+00,5.200663089752197266e+00,5.225666522979736328e+00,5.247607707977294922e+00,5.269392967224121094e+00,5.291092395782470703e+00,5.309644699096679688e+00,5.331989765167236328e+00,5.349900722503662109e+00,5.367672920227050781e+00,5.390023708343505859e+00,5.414338111877441406e+00,5.439034461975097656e+00,5.466489791870117188e+00,5.495476722717285156e+00,5.519491195678710938e+00,5.543944835662841797e+00,5.565162658691406250e+00,5.589872837066650391e+00,5.618252754211425781e+00,5.645678997039794922e+00,5.675869464874267578e+00,5.704250812530517578e+00,5.733921051025390625e+00,5.760731697082519531e+00,5.787409305572509766e+00,5.818446636199951172e+00,5.849242210388183594e+00,5.888700962066650391e+00,5.923799514770507812e+00,5.958606719970703125e+00,5.991897583007812500e+00,6.032119750976562500e+00,6.070538520812988281e+00,6.108982086181640625e+00,6.149027824401855469e+00,6.199471950531005859e+00,6.252638816833496094e+00,6.300136566162109375e+00,6.339697360992431641e+00,6.393053054809570312e+00,6.432116508483886719e+00,6.476722717285156250e+00,6.521391391754150391e+00,6.565529346466064453e+00,6.595890045166015625e+00,6.613809108734130859e+00,6.634933948516845703e+00,6.641770839691162109e+00,6.648879051208496094e+00,6.651504039764404297e+00,6.668046951293945312e+00,6.726978302001953125e+00,6.804728984832763672e+00,6.930536746978759766e+00,6.979749202728271484e+00,6.995948791503906250e+00,7.007731437683105469e+00,6.973613262176513672e+00,6.944759845733642578e+00,6.884149551391601562e+00,6.631697177886962891e+00,5.784930706024169922e+00,5.297353267669677734e+00,5.158868789672851562e+00,5.148704528808593750e+00,5.169046401977539062e+00,5.245093345642089844e+00,5.355729579925537109e+00,5.412928581237792969e+00,5.453650951385498047e+00,5.446287631988525391e+00,5.438993453979492188e+00,5.377922534942626953e+00,5.265386581420898438e+00,5.197700977325439453e+00,5.168767452239990234e+00,5.222311019897460938e+00,5.256677150726318359e+00,5.315710544586181641e+00,5.444200038909912109e+00,5.662749290466308594e+00,6.079953670501708984e+00,6.365423679351806641e+00,6.610760211944580078e+00,6.722126483917236328e+00,6.786446094512939453e+00,6.822533607482910156e+00,6.839516639709472656e+00,6.853263378143310547e+00,6.807115077972412109e+00,6.771849155426025391e+00,6.590555667877197266e+00,6.280516147613525391e+00,6.066827297210693359e+00,6.010849952697753906e+00,6.233733654022216797e+00,6.713075637817382812e+00,7.087429523468017578e+00,7.361033916473388672e+00,7.714044570922851562e+00
4.634622097015380859e+00,4.663496017456054688e+00,4.695015907287597656e+00,4.721314907073974609e+00,4.749050617218017578e+00,4.778459548950195312e+00,4.804659366607666016e+00,4.824038505554199219e+00,4.849064826965332031e+00,4.880253791809082031e+00,4.908131122589111328e+00,4.931252002716064453e+00,4.957565307617187500e+00,4.979353427886962891e+00,4.997390270233154297e+00,5.009418964385986328e+00,5.026653766632080078e+00,5.042090892791748047e+00,5.061417102813720703e+00,5.082688808441162109e+00,5.104160308837890625e+00,5.121603965759277344e+00,5.142196178436279297e+00,5.161618709564208984e+00,5.179566860198974609e+00,5.197455883026123047e+00,5.214001655578613281e+00,5.230620861053466797e+00,5.254100799560546875e+00,5.277023315429687500e+00,5.302348613739013672e+00,5.327733039855957031e+00,5.354924678802490234e+00,5.375135898590087891e+00,5.400529861450195312e+00,5.420455455780029297e+00,5.446702003479003906e+00,5.472557067871093750e+00,5.495635986328125000e+00,5.522397041320800781e+00,5.546575546264648438e+00,5.573028564453125000e+00,5.595561504364013672e+00,5.619623661041259766e+00,5.649623870849609375e+00,5.680291652679443359e+00,5.715516567230224609e+00,5.749623298645019531e+00,5.782468318939208984e+00,5.815248966217041016e+00,5.852749824523925781e+00,5.891472816467285156e+00,5.934390068054199219e+00,5.974313735961914062e+00,6.023060798645019531e+00,6.072460651397705078e+00,6.110455036163330078e+00,6.146469593048095703e+00,6.193401813507080078e+00,6.231197834014892578e+00,6.278172969818115234e+00,6.328057289123535156e+00,6.372151851654052734e+00,6.405599117279052734e+00,6.424781799316406250e+00,6.450531482696533203e+00,6.468327045440673828e+00,6.484272956848144531e+00,6.491352081298828125e+00,6.517382621765136719e+00,6.582856178283691406e+00,6.647128105163574219e+00,6.759567260742187500e+00,6.816614151000976562e+00,6.826505661010742188e+00,6.834074020385742188e+00,6.812005043029785156e+00,6.781956672668457031e+00,6.736432075500488281e+00,6.514409542083740234e+00,5.816563606262207031e+00,5.331945896148681641e+00,5.174021720886230469e+00,5.179804325103759766e+00,5.235277175903320312e+00,5.314569473266601562e+00,5.415501117706298828e+00,5.444593906402587891e+00,5.467579364776611328e+00,5.446341514587402344e+00,5.437827110290527344e+00,5.392091274261474609e+00,5.280295372009277344e+00,5.226116180419921875e+00,5.212393760681152344e+00,5.284203529357910156e+00,5.330541610717773438e+00,5.393364906311035156e+00,5.500751018524169922e+00,5.642238140106201172e+00,5.952392101287841797e+00,6.169493675231933594e+00,6.361275196075439453e+00,6.466397762298583984e+00,6.535898208618164062e+00,6.570716857910156250e+00,6.585507869720458984e+00,6.593508720397949219e+00,6.566336631774902344e+00,6.533375740051269531e+00,6.379341602325439453e+00,6.140181541442871094e+00,5.954169273376464844e+00,5.897054195404052734e+00,6.048819065093994141e+00,6.409203529357910156e+00,6.695370674133300781e+00,6.922009944915771484e+00,7.204848289489746094e+00
4.546720027923583984e+00,4.574458122253417969e+00,4.603653907775878906e+00,4.628482818603515625e+00,4.656133651733398438e+00,4.684368610382080078e+00,4.710424900054931641e+00,4.728624820709228516e+00,4.752126693725585938e+00,4.780740737915039062e+00,4.804022312164306641e+00,4.824568748474121094e+00,4.846351623535156250e+00,4.865376472473144531e+00,4.880404949188232422e+00,4.891990184783935547e+00,4.905726909637451172e+00,4.921308040618896484e+00,4.939764976501464844e+00,4.962445735931396484e+00,4.980880737304687500e+00,4.998702049255371094e+00,5.017749786376953125e+00,5.037987709045410156e+00,5.053780555725097656e+00,5.069777011871337891e+00,5.082803726196289062e+00,5.099266529083251953e+00,5.120573997497558594e+00,5.144340515136718750e+00,5.166516780853271484e+00,5.191709995269775391e+00,5.217459678649902344e+00,5.237080097198486328e+00,5.259350299835205078e+00,5.278565883636474609e+00,5.303124904632568359e+00,5.323122501373291016e+00,5.340712070465087891e+00,5.359632968902587891e+00,5.378778934478759766e+00,5.399274826049804688e+00,5.417204856872558594e+00,5.436474323272705078e+00,5.461471080780029297e+00,5.485738754272460938e+00,5.515592098236083984e+00,5.544610023498535156e+00,5.575069427490234375e+00,5.602237701416015625e+00,5.637734889984130859e+00,5.672331333160400391e+00,5.714063167572021484e+00,5.749289989471435547e+00,5.791464805603027344e+00,5.829635143280029297e+00,5.859383106231689453e+00,5.891548633575439453e+00,5.934971332550048828e+00,5.975338459014892578e+00,6.021490097045898438e+00,6.071059226989746094e+00,6.116429328918457031e+00,6.150806903839111328e+00,6.176750659942626953e+00,6.202437400817871094e+00,6.225931167602539062e+00,6.252324104309082031e+00,6.262538433074951172e+00,6.293735980987548828e+00,6.365295886993408203e+00,6.422388553619384766e+00,6.515464782714843750e+00,6.568445205688476562e+00,6.590845584869384766e+00,6.599587440490722656e+00,6.578578472137451172e+00,6.555497646331787109e+00,6.506641864776611328e+00,6.335497856140136719e+00,5.832690238952636719e+00,5.390121936798095703e+00,5.228579521179199219e+00,5.249450683593750000e+00,5.327635765075683594e+00,5.406481742858886719e+00,5.478067398071289062e+00,5.495046138763427734e+00,5.502243041992187500e+00,5.480545520782470703e+00,5.466793537139892578e+00,5.412010192871093750e+00,5.318632125854492188e+00,5.266182899475097656e+00,5.288636207580566406e+00,5.351622104644775391e+00,5.374413013458251953e+00,5.438308715820312500e+00,5.538921356201171875e+00,5.664049148559570312e+00,5.886985301971435547e+00,6.040215492248535156e+00,6.201892375946044922e+00,6.289548873901367188e+00,6.337892532348632812e+00,6.364985942840576172e+00,6.363037586212158203e+00,6.366407871246337891e+00,6.346016883850097656e+00,6.305708408355712891e+00,6.174197673797607422e+00,5.982370376586914062e+00,5.804453849792480469e+00,5.751165866851806641e+00,5.873700618743896484e+00,6.149785041809082031e+00,6.377699851989746094e+00,6.540282249450683594e+00,6.745677947998046875e+00
4.471678256988525391e+00,4.497684955596923828e+00,4.525159835815429688e+00,4.547236442565917969e+00,4.572019100189208984e+00,4.596381664276123047e+00,4.622183322906494141e+00,4.637204170227050781e+00,4.657133579254150391e+00,4.679381370544433594e+00,4.700940132141113281e+00,4.715464115142822266e+00,4.732105255126953125e+00,4.745611190795898438e+00,4.761207103729248047e+00,4.771933078765869141e+00,4.786688327789306641e+00,4.801738739013671875e+00,4.821248531341552734e+00,4.844967365264892578e+00,4.863527774810791016e+00,4.881062030792236328e+00,4.901754856109619141e+00,4.920880794525146484e+00,4.937858104705810547e+00,4.954317092895507812e+00,4.966118335723876953e+00,4.980597972869873047e+00,4.999649047851562500e+00,5.023804664611816406e+00,5.043159008026123047e+00,5.065833091735839844e+00,5.091764926910400391e+00,5.110805511474609375e+00,5.128888607025146484e+00,5.144255161285400391e+00,5.164896011352539062e+00,5.184025764465332031e+00,5.203149795532226562e+00,5.222850799560546875e+00,5.240357398986816406e+00,5.260867595672607422e+00,5.275529861450195312e+00,5.293459415435791016e+00,5.312065601348876953e+00,5.331943988800048828e+00,5.356698989868164062e+00,5.380420684814453125e+00,5.407052040100097656e+00,5.426828384399414062e+00,5.457413196563720703e+00,5.486806392669677734e+00,5.522521495819091797e+00,5.549048900604248047e+00,5.581418037414550781e+00,5.609259605407714844e+00,5.635972499847412109e+00,5.662607669830322266e+00,5.701679229736328125e+00,5.739425659179687500e+00,5.773493766784667969e+00,5.812290191650390625e+00,5.856063842773437500e+00,5.893431663513183594e+00,5.921936511993408203e+00,5.950356006622314453e+00,5.988790988922119141e+00,6.023605346679687500e+00,6.034178733825683594e+00,6.058378219604492188e+00,6.129670143127441406e+00,6.175778865814208984e+00,6.241072654724121094e+00,6.286309242248535156e+00,6.321617603302001953e+00,6.345940113067626953e+00,6.337775230407714844e+00,6.339468955993652344e+00,6.311576843261718750e+00,6.206966876983642578e+00,5.894805908203125000e+00,5.536518096923828125e+00,5.348051548004150391e+00,5.307272911071777344e+00,5.384977340698242188e+00,5.452838897705078125e+00,5.508901119232177734e+00,5.514212131500244141e+00,5.528283119201660156e+00,5.515383720397949219e+00,5.503542900085449219e+00,5.456885814666748047e+00,5.375080108642578125e+00,5.342571735382080078e+00,5.357489585876464844e+00,5.390931129455566406e+00,5.402341842651367188e+00,5.444061279296875000e+00,5.539227485656738281e+00,5.643725872039794922e+00,5.804453849792480469e+00,5.916805267333984375e+00,6.035852432250976562e+00,6.120275020599365234e+00,6.159511566162109375e+00,6.185781002044677734e+00,6.181937217712402344e+00,6.184260368347167969e+00,6.167445659637451172e+00,6.132495403289794922e+00,6.036288738250732422e+00,5.890346050262451172e+00,5.727680206298828125e+00,5.665709495544433594e+00,5.752403259277343750e+00,5.947916030883789062e+00,6.116812229156494141e+00,6.226480960845947266e+00,6.365345478057861328e+00
4.406169414520263672e+00,4.428966045379638672e+00,4.450968265533447266e+00,4.469754219055175781e+00,4.490746021270751953e+00,4.513479232788085938e+00,4.537112236022949219e+00,4.551851272583007812e+00,4.568974018096923828e+00,4.590189933776855469e+00,4.609592437744140625e+00,4.624426364898681641e+00,4.639910697937011719e+00,4.652084350585937500e+00,4.665710449218750000e+00,4.677500247955322266e+00,4.691549777984619141e+00,4.705125331878662109e+00,4.722356319427490234e+00,4.743243217468261719e+00,4.759551525115966797e+00,4.774152278900146484e+00,4.794272422790527344e+00,4.809859275817871094e+00,4.825552463531494141e+00,4.840601444244384766e+00,4.853272914886474609e+00,4.864694595336914062e+00,4.880485534667968750e+00,4.902594566345214844e+00,4.919046401977539062e+00,4.937706947326660156e+00,4.958205699920654297e+00,4.971760272979736328e+00,4.988008499145507812e+00,5.000532150268554688e+00,5.017813682556152344e+00,5.038199424743652344e+00,5.056492805480957031e+00,5.074961662292480469e+00,5.092388153076171875e+00,5.109249114990234375e+00,5.124077796936035156e+00,5.138248920440673828e+00,5.153028011322021484e+00,5.170269012451171875e+00,5.188929557800292969e+00,5.209547519683837891e+00,5.230777740478515625e+00,5.251134872436523438e+00,5.272974491119384766e+00,5.303923606872558594e+00,5.334523200988769531e+00,5.362753391265869141e+00,5.386420726776123047e+00,5.411431312561035156e+00,5.433888435363769531e+00,5.459029674530029297e+00,5.495322227478027344e+00,5.525589942932128906e+00,5.551673889160156250e+00,5.584172725677490234e+00,5.620435237884521484e+00,5.652997016906738281e+00,5.685549259185791016e+00,5.718227386474609375e+00,5.761879444122314453e+00,5.799993991851806641e+00,5.817385196685791016e+00,5.837721347808837891e+00,5.893972396850585938e+00,5.933331966400146484e+00,5.989930629730224609e+00,6.042391300201416016e+00,6.087741374969482422e+00,6.107191562652587891e+00,6.103950023651123047e+00,6.116933345794677734e+00,6.099488735198974609e+00,6.041251182556152344e+00,5.843615055084228516e+00,5.605809688568115234e+00,5.432037353515625000e+00,5.415164470672607422e+00,5.493638515472412109e+00,5.548744678497314453e+00,5.580948829650878906e+00,5.567951679229736328e+00,5.574290275573730469e+00,5.551764488220214844e+00,5.538192749023437500e+00,5.490063667297363281e+00,5.436186790466308594e+00,5.419412612915039062e+00,5.439405441284179688e+00,5.485369205474853516e+00,5.504447460174560547e+00,5.527251243591308594e+00,5.593132495880126953e+00,5.657603740692138672e+00,5.754330635070800781e+00,5.814363002777099609e+00,5.906906127929687500e+00,5.970986366271972656e+00,5.997332572937011719e+00,6.013244628906250000e+00,6.007622718811035156e+00,6.003521442413330078e+00,5.980654239654541016e+00,5.954251289367675781e+00,5.871961593627929688e+00,5.763721942901611328e+00,5.611957073211669922e+00,5.568694114685058594e+00,5.625379562377929688e+00,5.768862724304199219e+00,5.898567676544189453e+00,5.958784103393554688e+00,6.063329696655273438e+00
4.331086158752441406e+00,4.353376388549804688e+00,4.369338035583496094e+00,4.387159824371337891e+00,4.407748699188232422e+00,4.433806896209716797e+00,4.453410625457763672e+00,4.469109535217285156e+00,4.485840797424316406e+00,4.509130001068115234e+00,4.526672840118408203e+00,4.541964530944824219e+00,4.558383941650390625e+00,4.571389198303222656e+00,4.582793235778808594e+00,4.591913223266601562e+00,4.602404117584228516e+00,4.610954761505126953e+00,4.626674175262451172e+00,4.641165256500244141e+00,4.656173229217529297e+00,4.665775775909423828e+00,4.684305191040039062e+00,4.697217464447021484e+00,4.710494518280029297e+00,4.721841335296630859e+00,4.737983703613281250e+00,4.748847961425781250e+00,4.765248298645019531e+00,4.785062789916992188e+00,4.798474311828613281e+00,4.815390110015869141e+00,4.834900379180908203e+00,4.846990585327148438e+00,4.860645771026611328e+00,4.871214389801025391e+00,4.886190414428710938e+00,4.901809692382812500e+00,4.914713859558105469e+00,4.927280426025390625e+00,4.943374156951904297e+00,4.956776142120361328e+00,4.968287944793701172e+00,4.976540088653564453e+00,4.987901687622070312e+00,4.999609470367431641e+00,5.014733791351318359e+00,5.030603408813476562e+00,5.051382064819335938e+00,5.070880413055419922e+00,5.092305183410644531e+00,5.120713710784912109e+00,5.148119449615478516e+00,5.174046039581298828e+00,5.194543838500976562e+00,5.216442584991455078e+00,5.239550590515136719e+00,5.256884574890136719e+00,5.281566143035888672e+00,5.307846069335937500e+00,5.331027507781982422e+00,5.358085632324218750e+00,5.388713836669921875e+00,5.419857978820800781e+00,5.455464363098144531e+00,5.492070198059082031e+00,5.537921428680419922e+00,5.577274799346923828e+00,5.600424766540527344e+00,5.621577262878417969e+00,5.664369583129882812e+00,5.693994998931884766e+00,5.738866329193115234e+00,5.795031547546386719e+00,5.841111183166503906e+00,5.867568969726562500e+00,5.870807170867919922e+00,5.886515140533447266e+00,5.874959468841552734e+00,5.839259624481201172e+00,5.712276935577392578e+00,5.561375617980957031e+00,5.434208393096923828e+00,5.416477680206298828e+00,5.483732223510742188e+00,5.520274639129638672e+00,5.549019813537597656e+00,5.547708511352539062e+00,5.545338153839111328e+00,5.527493953704833984e+00,5.503824710845947266e+00,5.468096256256103516e+00,5.441952228546142578e+00,5.426680088043212891e+00,5.462810039520263672e+00,5.511178970336914062e+00,5.545788764953613281e+00,5.548110008239746094e+00,5.583554744720458984e+00,5.613343715667724609e+00,5.659823894500732422e+00,5.706758022308349609e+00,5.762321472167968750e+00,5.800595283508300781e+00,5.811878681182861328e+00,5.815167427062988281e+00,5.806820392608642578e+00,5.798409938812255859e+00,5.784333229064941406e+00,5.755861759185791016e+00,5.685829639434814453e+00,5.598221778869628906e+00,5.492476463317871094e+00,5.461813449859619141e+00,5.503170013427734375e+00,5.604066371917724609e+00,5.695852756500244141e+00,5.737185955047607422e+00,5.802059650421142578e+00
4.220704078674316406e+00,4.243073463439941406e+00,4.260216712951660156e+00,4.281043529510498047e+00,4.303154468536376953e+00,4.330669879913330078e+00,4.351055622100830078e+00,4.371098995208740234e+00,4.389602661132812500e+00,4.413104534149169922e+00,4.432381153106689453e+00,4.449007034301757812e+00,4.464251518249511719e+00,4.476271152496337891e+00,4.489481925964355469e+00,4.495278835296630859e+00,4.503085613250732422e+00,4.512784957885742188e+00,4.526883602142333984e+00,4.542251110076904297e+00,4.556081771850585938e+00,4.568014144897460938e+00,4.584064960479736328e+00,4.596209526062011719e+00,4.606900691986083984e+00,4.618155956268310547e+00,4.634969711303710938e+00,4.645103931427001953e+00,4.661686897277832031e+00,4.675991058349609375e+00,4.686523914337158203e+00,4.700349330902099609e+00,4.720660209655761719e+00,4.731451034545898438e+00,4.744564056396484375e+00,4.753096580505371094e+00,4.766137599945068359e+00,4.776981353759765625e+00,4.787462711334228516e+00,4.797995567321777344e+00,4.813571453094482422e+00,4.829282283782958984e+00,4.839938640594482422e+00,4.850384712219238281e+00,4.858503818511962891e+00,4.869228363037109375e+00,4.880588531494140625e+00,4.893514633178710938e+00,4.908026218414306641e+00,4.920827865600585938e+00,4.938854217529296875e+00,4.960374355316162109e+00,4.976856708526611328e+00,4.993293762207031250e+00,5.012313365936279297e+00,5.031157970428466797e+00,5.048234939575195312e+00,5.058057785034179688e+00,5.076075553894042969e+00,5.100667953491210938e+00,5.120414733886718750e+00,5.140814781188964844e+00,5.170176982879638672e+00,5.203229427337646484e+00,5.238934516906738281e+00,5.275972366333007812e+00,5.314567089080810547e+00,5.354853153228759766e+00,5.370552062988281250e+00,5.391695499420166016e+00,5.434713363647460938e+00,5.456721305847167969e+00,5.485363960266113281e+00,5.531422138214111328e+00,5.579924106597900391e+00,5.604090213775634766e+00,5.611662387847900391e+00,5.628481864929199219e+00,5.624060630798339844e+00,5.607676506042480469e+00,5.547689914703369141e+00,5.475691795349121094e+00,5.383517265319824219e+00,5.374707698822021484e+00,5.413794517517089844e+00,5.435111522674560547e+00,5.449699878692626953e+00,5.446926116943359375e+00,5.441864967346191406e+00,5.425549030303955078e+00,5.408767223358154297e+00,5.392381191253662109e+00,5.396057128906250000e+00,5.399141311645507812e+00,5.411588668823242188e+00,5.447903156280517578e+00,5.473649501800537109e+00,5.472785472869873047e+00,5.491927146911621094e+00,5.490794181823730469e+00,5.515434265136718750e+00,5.537833213806152344e+00,5.566891193389892578e+00,5.585707664489746094e+00,5.587457656860351562e+00,5.585767269134521484e+00,5.569120407104492188e+00,5.561274528503417969e+00,5.548828601837158203e+00,5.521381855010986328e+00,5.462362766265869141e+00,5.401259899139404297e+00,5.328939914703369141e+00,5.314551353454589844e+00,5.334500312805175781e+00,5.398569583892822266e+00,5.452249526977539062e+00,5.474233150482177734e+00,5.522704601287841797e+00
